# .PCD v0.7 - Point Cloud Data file format
VERSION 0.7
FIELDS x y z
SIZE 4 4 4
TYPE F F F
COUNT 1 1 1
WIDTH 1564
HEIGHT 1
VIEWPOINT 0 0 0 1 0 0 0
POINTS 1564
DATA ascii
-12.922665 3.6053567 0.35535669
-12.102774 3.6085191 0.35851908
1.425 3.6078396 0.35665524
0.74089247 3.6988387 0.35169166
0.64614409 3.7092757 0.35927555
1.4076303 3.7423697 0.35417604
0.484155 3.7975352 0.35242951
0.89085072 3.8250003 0.35460466
-13.318321 -6.2139134 0.36391336
-13.137678 -6.1750002 0.36715043
-12.506808 -6.1750002 0.36709452
-11.202568 -6.1750002 0.36232328
-10.262735 -6.1500225 0.36224306
-10.251344 -6.1557751 0.36788064
-12.860538 -6.1491051 0.3635667
-13.080187 -6.1341062 0.3607077
-13.504793 -6.1122112 0.36221087
-11.626669 -6.1090784 0.36457515
-11.928076 -6.0912209 0.36578614
-15.008473 -6.0749998 0.36052191
-9.9542465 -6.0749998 0.36235574
-9.4324789 -6.0749998 0.36951363
-12.222733 -6.0607476 0.36900774
-21.025 -6.0464382 0.36715582
-14.802794 -5.9854136 0.36458683
-24.73731 -5.9718671 0.36533588
-13.340387 -5.9425459 0.36971164
-13.354261 -5.9372053 0.36402306
-12.078045 -5.9250002 0.36765063
-11.883185 -5.9250002 0.36899954
-11.738618 -5.9250002 0.36639705
-11.274554 -5.9250002 0.36033073
-10.716941 -5.9250002 0.36704642
-10.613239 -5.9250002 0.36599907
-22.706343 -5.8970127 0.36548349
-8.914135 -5.875 0.36893106
-8.1087685 -5.875 0.36410663
-7.831852 -5.875 0.36889064
-7.7115669 -5.875 0.36423701
-22.683105 -5.8621583 0.36648512
-14.625 -5.8443108 0.36441034
-21.610882 -5.8391194 0.36495563
-8.9643154 -5.8207197 0.3600356
-8.6474094 -5.8249998 0.36188909
-8.5317135 -5.8249998 0.3619343
-8.1943779 -5.8249993 0.36803013
-17.087351 -5.8152618 0.36526185
-13.425 -5.8134241 0.36287618
-23.564901 -5.7727232 0.36717844
-22.91415 -5.7750001 0.36079457
-21.857342 -5.7749996 0.36002678
-21.805601 -5.7750001 0.36031216
-8.3939457 -5.7663178 0.36412132
-8.3565731 -5.7626481 0.36656791
-7.9441175 -5.7618599 0.36709344
-8.7775793 -5.7461309 0.36041522
-22.618881 -5.7209215 0.36627263
-13.655634 -5.7149706 0.36620852
-14.811891 -5.6919703 0.36188996
-25.017456 -5.6750002 0.36538562
-25.160015 -5.625 0.36888504
-25.674999 -5.5987015 0.36829215
-22.725 -5.5720534 0.36482322
-8.8249998 -5.5581698 0.3618187
-23.204233 -5.5444889 0.36216223
-14.759951 -5.5459671 0.36747515
-8.4196548 -5.5346889 0.36965463
-23.114403 -5.5249996 0.36400765
-22.76437 -5.5250001 0.3622058
-21.835045 -5.5250001 0.36362916
-21.234255 -5.5250001 0.36592016
-21.113525 -5.5249996 0.36046538
-14.081553 -5.5249996 0.36552304
-13.801861 -5.5250001 0.36349896
-21.062424 -5.512424 0.36834347
-13.425207 -5.5145674 0.36436093
-14.913789 -5.4918375 0.36378947
-13.723507 -5.4854784 0.36122459
-20.87244 -5.4775581 0.36043364
-9.5749998 -5.4691343 0.36575431
-20.990784 -5.4407835 0.364824
-13.469087 -5.4374828 0.36908674
-9.0378304 -5.4107432 0.3682282
-9.0402594 -5.4093509 0.36727285
-13.424999 -5.3995533 0.3606393
-14.788845 -5.3823733 0.36762726
-14.647881 -5.3871069 0.36289319
-9.1064949 -5.3485861 0.36963171
-9.0776682 -5.3294926 0.3633461
0.78478014 -5.2521725 0.3668426
-9.4250002 -5.2473869 0.36058229
1.5830619 -5.1750002 0.36604807
-9.4835577 -5.1664414 0.3601006
-25.024998 -5.0879545 0.36269799
0.78328109 -5.0791407 0.36822444
1.5848379 -5.020081 0.36339453
1.525 -4.9653168 0.36196923
1.525 -4.8971949 0.36920655
2.575 -4.8705235 0.36128059
1.8819759 -4.7950044 0.36802411
-24.738838 -4.490159 0.36248526
-20.856251 -4.411756 0.36562562
-17.153465 -4.3965335 0.36532053
-16.458302 -4.375 0.36859435
-16.150139 -4.375 0.36995009
-16.048817 -4.375 0.36857483
-13.525 -4.3712239 0.36368066
-16.679178 -4.3652811 0.36736998
-16.695171 -4.3549762 0.36506245
-15.978878 -4.3211226 0.36377159
-14.983977 -4.3249998 0.36807778
-15.462687 -4.290288 0.36268702
-15.463629 -4.285346 0.36362833
-15.744317 -4.2782526 0.36976862
1.925 -4.2511525 0.36454654
-15.806896 -4.2446303 0.3621183
-15.829396 -4.2184591 0.36303636
2.075 -4.2178388 0.36851037
-20.931421 -4.1873851 0.36534494
-21.196796 -4.1742702 0.36559826
-14.710455 -4.1798587 0.36531392
-14.584562 -4.1762514 0.36543757
-13.85633 -4.1750002 0.36782193
-15.708427 -4.1318889 0.36156076
-21.044796 -4.125 0.36424834
-13.525 -4.126514 0.36851582
-15.67285 -4.1164589 0.36430705
-9.1072121 -4.0572128 0.36730522
-24.643707 -4.039609 0.3680726
-17.213305 -4.0250001 0.3642914
-13.675001 -4.0203133 0.36908445
-5.3987589 -4.015358 0.36535805
-15.207626 -4.0013819 0.36599201
-9.0418129 -3.9918137 0.36361289
-9.0334377 -3.983438 0.36888313
-5.4021988 -3.982707 0.36321571
-16.225054 -3.9750535 0.36295262
-15.668667 -3.975904 0.36776221
-2.2750001 -3.9513071 0.36666203
-6.9604607 -3.9473343 0.36046055
-2.7181761 -3.9365387 0.36817613
-7.2198515 -3.9286504 0.36985123
-6.8476334 -3.9266548 0.36372057
-6.4184384 -3.9215374 0.3684386
-4.7618704 -3.9143798 0.36437985
-15.465887 -3.8913519 0.36863393
-7.1949792 -3.8973217 0.36495775
-6.8122926 -3.8968396 0.36559123
-24.625 -3.8889234 0.36059913
-16.166769 -3.8809497 0.36854649
-2.1856759 -3.8852024 0.36432385
-1.4712722 -3.875 0.36701912
-2.6976192 -3.8653255 0.36056361
0.52499998 -3.8598506 0.36308974
-15.596188 -3.843977 0.36737615
0.19084974 -3.8408499 0.36788344
-2.7171011 -3.8373952 0.36210033
-2.1194413 -3.8302908 0.36349493
-3.6146803 -3.8239241 0.36468035
-2.3310924 -3.8244808 0.36274117
-2.3269563 -3.8231378 0.36087906
-7.762754 -3.8046374 0.3657254
0.15201417 -3.8020141 0.36193147
-9.4250002 -3.7914953 0.36449105
-5.4957533 -3.7988095 0.3665064
-0.13850248 -3.7985823 0.36619407
0.0098238466 -3.7851176 0.36410448
-7.8905029 -3.7769425 0.36737382
0.92454338 -3.7750001 0.36924478
1.5654656 -3.7750001 0.36714265
-15.762774 -3.7541342 0.3663592
-5.3575687 -3.7512436 0.36820266
-4.6545172 -3.7453704 0.36585349
0.48300046 -3.7399783 0.36699954
1.075 -3.7336516 0.36428505
-8.356122 -3.7132926 0.36329252
-3.8202102 -3.71948 0.36947989
-3.6860337 -3.7131829 0.36318272
-3.1627722 -3.7115541 0.36155415
-0.12741049 -3.7103126 0.36081859
-0.175 -3.705193 0.36910719
-8.1882248 -3.6900861 0.36356032
-0.23032375 -3.6926889 0.36188251
-4.7945538 -3.6804543 0.36954552
-24.665726 -3.672776 0.36350149
-17.090237 -3.675 0.36006081
-17.062216 -3.675 0.36765367
-16.432119 -3.6750002 0.36328411
-14.897774 -3.6729865 0.36037979
1.9262868 -3.6750002 0.36023945
2.0384126 -3.6750002 0.36756086
0.74667871 -3.6510899 0.3681612
-1.8667156 -3.6455865 0.36377308
-24.718042 -3.6319578 0.36320063
-9.4689178 -3.6367035 0.36937773
1.7813283 -3.6250002 0.36164844
-8.5699482 -3.6182499 0.36824989
-0.53067535 -3.6101851 0.36018515
-8.6097383 -3.6055236 0.36231047
-2.6362982 -3.6033473 0.36778247
-1.5237325 -3.6079142 0.3657186
-14.555307 -3.594692 0.36246589
-1.8788565 -3.5865695 0.36783767
-25.674999 -3.570888 0.36311489
-7.8874931 -3.5727487 0.36249778
-7.6341124 -3.5749998 0.36162043
-7.625 -3.5727806 0.36618143
0.55305314 -3.5702233 0.36042914
0.97499996 -3.5745173 0.36837763
-9.0749998 -3.5630515 0.36771917
-8.4575691 -3.5561013 0.36555076
-24.838308 -3.5250001 0.36431384
-1.5379345 -3.5250001 0.36485624
1.5250001 -3.5244293 0.36118394
-14.982938 -3.5095801 0.36751792
-25.674999 -3.4997678 0.36468703
-13.675 -3.4856701 0.36551273
-14.99669 -3.4635215 0.36084506
-14.995662 -3.459451 0.360331
-14.855021 -3.4557486 0.36422986
0.61542875 -3.4250002 0.36179787
0.77785736 -3.4250002 0.36763442
-21.196259 -3.4181113 0.36561519
-9.5249996 -3.4116309 0.36083427
-25.174999 -3.3291183 0.36521041
-7.7409372 -3.3074193 0.36932501
-7.5808134 -3.2607684 0.369187
-9.4721737 -3.2397826 0.36603823
-7.0304689 -3.2344005 0.36760426
-23.85165 -3.2249999 0.36966765
-16.949318 -3.2241511 0.36672205
-16.848806 -3.2048545 0.36007285
-6.0723505 -3.20012 0.36994147
-7.3676929 -3.175 0.36653411
-8.5749998 -3.1581686 0.36989865
-7.2468886 -3.1389716 0.36708248
-13.771298 -3.121299 0.36574215
-25.674999 -3.1139984 0.36068714
-25.695505 -3.1013565 0.36160976
-5.481534 -3.0985494 0.3637487
-8.4720573 -3.0836203 0.36070228
-7.4248991 -3.0869713 0.36181995
-7.2982512 -3.0609932 0.36337447
-4.2249999 -3.0616875 0.36584851
-2.7190919 -3.0687904 0.36909187
-7.1426902 -3.0558717 0.36100188
-4.2249999 -3.0446806 0.36542195
-7.325994 -3.0322471 0.36043963
-16.963722 -3.0250001 0.36077473
-16.593632 -3.0250001 0.3644278
-16.442434 -3.0298944 0.36669275
-16.161234 -3.0250001 0.36333233
-16.071432 -3.0250003 0.36591989
-15.975426 -3.0250001 0.36657944
-15.799378 -3.0250001 0.36072785
-15.295855 -3.0250001 0.36373854
-15.035248 -3.0250001 0.36601266
-14.687023 -3.0250001 0.36076984
-7.4066076 -2.9908113 0.36972949
-9.3663197 -2.9836802 0.36131209
-25.084551 -2.9707816 0.36544999
-8.3379211 -2.9608653 0.3667196
-25.146441 -2.9488494 0.36427924
-5.0851889 -2.9450722 0.36497775
-2.2960958 -2.9344511 0.36586779
-13.525001 -2.9238629 0.36947289
-7.9425383 -2.9120257 0.36202571
-1.5923461 -2.895638 0.36634383
-25.149212 -2.8861217 0.3628937
-2.7840328 -2.875 0.36882913
-2.0338922 -2.875 0.36137712
1.4813657 -2.875 0.36399665
-25.180696 -2.8658862 0.36566415
-25.160286 -2.8575649 0.36075896
-25.140917 -2.8583746 0.36704177
-8.3541679 -2.8482919 0.36089408
1.451701 -2.8373547 0.36405566
-7.970479 -2.825 0.36404872
-7.890182 -2.8250003 0.36301288
-7.7730889 -2.825 0.36261356
-7.284759 -2.8249998 0.36757955
-6.7124329 -2.825 0.36161822
-3.7126956 -2.7964182 0.36783564
-1.438329 -2.7946353 0.36778179
-1.3602475 -2.7963676 0.36773568
-2.885253 -2.7843728 0.36562735
-2.6092253 -2.7690716 0.3671127
-25.125 -2.7395947 0.36865932
-1.1194837 -2.731019 0.36454493
1.5252116 -2.7349377 0.36485088
-5.5431204 -2.7249999 0.36797386
-0.33694166 -2.7150214 0.36502132
-2.9889855 -2.693007 0.36770415
0.61691314 -2.6805289 0.36003858
0.92500001 -2.6733487 0.36658943
1.6355277 -2.6342084 0.36799845
-12.104035 -2.575 0.36058587
-25.631422 -2.5343592 0.36564073
2.4749999 -2.513834 0.36369574
-12.275 -2.5077307 0.36966389
2.325 -2.493427 0.36744267
2.4749999 -2.4808617 0.36750245
-24.76178 -2.4749999 0.36091852
-11.204765 -2.4749999 0.36481279
-25.755379 -2.4699657 0.36041337
-25.540621 -2.464304 0.36226383
-25.536758 -2.4635916 0.36877167
-25.671906 -2.4477649 0.36230385
-10.993289 -2.3908553 0.36317208
-11.523708 -2.3881907 0.36180925
-24.725002 -2.3421605 0.36728755
-24.787575 -2.262424 0.36423421
-12.089515 -2.2038722 0.36048478
-25.689867 -2.160131 0.36104196
-23.829542 -2.0928741 0.36136296
-16.617025 -2.075 0.36953923
-16.327599 -2.075 0.36132285
-16.312346 -2.075 0.36367741
-24.751038 -2.0527887 0.36373448
-25.075001 -2.0250719 0.36932397
-13.567511 -2.027174 0.36751121
-24.937822 -1.9750001 0.36983395
-9.5249996 -1.9613128 0.36739156
-13.525 -1.9500935 0.36076748
-12.084618 -1.9192885 0.36538154
-24.850986 -1.8990151 0.36006674
-13.525 -1.8824686 0.36646029
-13.688758 -1.8628603 0.36812103
-25.290867 -1.8356017 0.36011189
-13.974822 -1.8185294 0.36852947
-25.380293 -1.8091174 0.36716905
-15.994773 -1.8038315 0.36441571
-14.215984 -1.793031 0.36249954
-24.037687 -1.7824237 0.36757618
-6.7867861 -1.7749999 0.36416551
-6.2753563 -1.775 0.369205
-5.8631735 -1.775 0.36580861
-4.9189858 -1.775 0.36002663
-13.859974 -1.7096186 0.36987281
-13.555296 -1.6947038 0.36864525
-13.809589 -1.6787678 0.3649857
-9.3987932 -1.675 0.36291057
-9.2986546 -1.675 0.36204118
-4.1176782 -1.675 0.36183807
-3.7490549 -1.675 0.36375499
-3.4181869 -1.675 0.36666209
-3.1476145 -1.675 0.36477101
-2.6006074 -1.675 0.36813855
-2.2918534 -1.675 0.36690408
-2.2261083 -1.675 0.36596209
-1.9690627 -1.675 0.36047316
-23.599104 -1.6352214 0.36915255
-3.5148737 -1.6351264 0.36642802
-23.833155 -1.625 0.36935779
-23.723757 -1.6241715 0.36397383
-16.228741 -1.625 0.36462566
-11.160368 -1.6235256 0.36036801
-9.3583565 -1.625 0.36925766
-9.2236395 -1.625 0.36973292
-3.5373735 -1.6126266 0.36981747
-24.674999 -1.609798 0.36320966
-24.003679 -1.5966489 0.3676427
-1.283404 -1.575 0.36099714
-9.1129608 -1.5629603 0.36361811
-25.52726 -1.5369575 0.36630502
0.75124055 -1.4987594 0.36837813
1.8892088 -1.4972188 0.3607913
-24.075001 -1.4890862 0.36063406
-15.896352 -1.4844168 0.36717603
1.4355891 -1.4749999 0.36547548
-12.275 -1.461643 0.3659991
-13.597826 -1.3945842 0.36741
-25.174999 -1.374653 0.36357415
-16.537457 -1.3704127 0.36713177
-16.096422 -1.375 0.36655992
-13.585515 -1.3644853 0.36202139
-5.5849667 -1.3650339 0.36495477
-16.825001 -1.3444324 0.36570647
-16.244331 -1.325 0.36839575
-15.77094 -1.3209401 0.36467803
-25.660433 -1.3104324 0.36375257
-6.2239618 -1.3126439 0.36160588
-24.943945 -1.2965817 0.36000642
-23.525 -1.2952819 0.36632574
-12.082541 -1.2987489 0.36745882
1.425 -1.2867758 0.36168531
-25.525 -1.2787467 0.36858422
-23.472115 -1.2669284 0.36981243
-23.211512 -1.261512 0.36192438
-23.156593 -1.2306385 0.36321187
-25.557495 -1.225 0.36844614
-7.5836072 -1.2224261 0.36896697
-6.893054 -1.2273482 0.36989942
-1.550374 -1.225 0.36998639
-0.66544473 -1.225 0.36696485
-0.19291675 -1.225 0.36643583
-23.585594 -1.2091094 0.36912689
-23.372696 -1.2070091 0.36042559
-23.386442 -1.1991777 0.36367458
-12.275 -1.190878 0.36299846
-11.124004 -1.1615748 0.36057961
-2.7837951 -1.1662048 0.36626866
-12.162727 -1.1521251 0.36014825
-25.121067 -1.1289321 0.36659434
-23.639038 -1.128938 0.36897889
-2.6697426 -1.0802573 0.36499786
-12.024001 -1.0662612 0.3652623
-7.7423997 -1.025 0.36191279
-6.5313501 -1.025 0.36344206
-9.58881 -0.99754357 0.36119062
-23.406399 -0.95639944 0.36915502
-23.387083 -0.93708432 0.36500537
-14.252823 -0.9376514 0.36676764
-14.193591 -0.93007791 0.36171862
-14.187677 -0.91303331 0.36734909
-8.3577948 -0.88019633 0.36087668
-13.914597 -0.87302095 0.36063808
-13.894649 -0.875 0.36264083
-11.48505 -0.86394942 0.36495009
-13.724455 -0.84584594 0.36690375
-14.275 -0.83895564 0.36851984
-7.3894119 -0.83941162 0.3687419
-8.326313 -0.7950772 0.36218154
-14.262867 -0.77425718 0.36360952
1.4747244 -0.7335856 0.36405706
1.425 -0.72844136 0.36517799
-9.2245131 -0.71974546 0.36974546
-9.3243885 -0.6762231 0.36097926
1.425 -0.6459924 0.36816323
1.475 -0.645365 0.36065567
-25.212938 -0.62702847 0.36293876
-13.525 -0.6053378 0.36530459
-11.73266 -0.58417636 0.36734045
-11.687239 -0.57435942 0.36180151
-11.736227 -0.54811972 0.3637732
-25.213034 -0.52272367 0.36303422
-5.4685087 -0.52499998 0.36802027
-7.5194764 -0.51671439 0.36270082
-4.3426275 -0.5073725 0.36960027
-7.2750001 -0.4856855 0.36680549
2.3711789 -0.46004754 0.36386859
-7.875 -0.4428218 0.36955759
2.4749999 -0.44037348 0.36874729
-7.4500442 -0.32499999 0.36761907
-25.208073 -0.29989234 0.36681765
1.5113771 -0.29543418 0.36718252
-25.193764 -0.28049672 0.36173344
-25.005867 -0.22499999 0.36217856
-24.938938 -0.22499999 0.3668412
-24.886337 -0.22499999 0.36273766
-11.568423 -0.20443399 0.36821428
-11.336942 -0.18995206 0.36336929
-23.346624 -0.175 0.36042172
-22.958782 -0.175 0.36782202
2.3901763 -0.17947146 0.36828548
-11.392835 -0.16078526 0.362881
1.808229 -0.16173175 0.36492151
-23.466961 -0.15335177 0.36465928
-11.49556 -0.15188926 0.36044323
-24.793547 -0.14354852 0.3650105
-23.050613 -0.14081362 0.36642587
-23.07856 -0.11636804 0.36636803
-22.51613 -0.092740178 0.36973011
-22.924999 0.037678253 0.36317852
-12.275 0.031110119 0.36357337
-22.45476 0.075000003 0.36070418
-21.517998 0.096006706 0.36758801
-25.04426 0.125 0.36211488
-24.967453 0.12612841 0.36953458
-24.511583 0.13394417 0.36550653
-11.556602 0.14740223 0.36944428
1.862227 0.14895505 0.36172819
-23.381731 0.18717916 0.36282083
-24.414946 0.19836929 0.36936715
-23.329748 0.23049308 0.3695069
-17.114681 0.28800628 0.36199373
-24.919746 0.30548459 0.36974525
-25.629639 0.32499999 0.3685165
-9.6297131 0.32499999 0.36289954
-24.186619 0.33310962 0.3633824
-23.272343 0.34198633 0.36067104
-13.625 0.36115539 0.36276823
-24.519264 0.375 0.3651107
-9.6750002 0.37728176 0.36766535
1.8845332 0.375 0.36664033
-25.767525 0.38790959 0.36209047
-25.775002 0.40841454 0.36732331
-15.995383 0.40722245 0.36055508
-15.117761 0.42499998 0.36766836
-15.012162 0.42500001 0.36654168
-11.925196 0.43436539 0.36602509
-11.025 0.46016002 0.3609044
-15.89291 0.47500002 0.36119145
-15.163646 0.47500002 0.36414191
-11.920167 0.48441461 0.36147153
-11.880663 0.48997536 0.36332515
-23.461308 0.49216461 0.36641768
-12.275 0.50452304 0.36696464
-24.875 0.51562691 0.36761001
-12.274999 0.5193643 0.36379856
-14.368398 0.52499998 0.36961547
-14.725 0.54778123 0.36041719
-25.775002 0.55774277 0.36237323
-24.625 0.55452377 0.36504632
-14.800673 0.5616805 0.36216307
-23.182667 0.57828569 0.36514056
-22.428022 0.57499999 0.36027181
-24.581787 0.58940423 0.36468536
-14.875 0.59201592 0.36506104
-22.080837 0.60517287 0.36916423
-13.625001 0.60832316 0.36053807
2.375 0.61141127 0.36236611
1.5533115 0.625 0.36656868
-22.929581 0.65750742 0.36999503
-14.089318 0.67499995 0.36688438
-9.4675531 0.67845428 0.36755335
-24.061903 0.69598764 0.36697531
1.5218346 0.69661123 0.36674112
-9.7749996 0.70153385 0.36748624
-4.2249999 0.70874697 0.36491394
-25.69693 0.71774137 0.36096483
-14.263107 0.71310675 0.36680323
-23.718046 0.72267586 0.36804855
-14.271446 0.72144616 0.36406356
2.2525265 0.72668433 0.36351657
-22.074142 0.73208153 0.36877477
-23.003258 0.7623089 0.36230889
-22.034565 0.77491164 0.36552346
-24.704998 0.78833455 0.36288524
-9.0576277 0.78332615 0.36179158
-14.325 0.79357845 0.36632007
-12.135752 0.79274315 0.3642773
-8.9568748 0.79312503 0.36567414
2.3487902 0.81235456 0.36235458
-24.484074 0.82317948 0.36592677
-12.126403 0.82078904 0.36189032
-7.0250001 0.82158881 0.36334848
-8.9250002 0.84752786 0.36407989
-4.2249999 0.86732733 0.36003467
-15.4415 0.88185322 0.36814678
-21.004505 0.8999238 0.36599094
-13.775 0.90825355 0.3634274
-22.781548 0.91190457 0.36858082
-20.668056 0.93918014 0.36776409
-22.954021 0.97500002 0.36332548
-4.2750001 0.97310627 0.36187741
-15.518688 0.98948169 0.36868772
-24.825001 1.0233417 0.36369723
-22.164268 1.075 0.36806124
-21.28651 1.1006608 0.36991221
-8.8458033 1.1041969 0.36945796
-14.741688 1.1120726 0.36207256
-14.331539 1.1184605 0.36588913
-8.2792149 1.125 0.3622421
-24.825001 1.1691318 0.3677786
-20.96801 1.175 0.36861855
-9.0494986 1.200501 0.36643797
-9.0343199 1.2156804 0.36001822
-7.2375469 1.225 0.36539245
-24.825001 1.2661629 0.36275575
-25.278259 1.2766296 0.36616275
-7.8306694 1.275 0.36253908
-14.175 1.3366303 0.36921328
-24.825001 1.3799279 0.36522001
-14.175 1.3758205 0.36667222
-17.165062 1.4885191 0.36148095
-13.846166 1.5275564 0.36268789
-11.779545 1.575 0.36358505
-25.12958 1.5818678 0.3612549
-16.983425 1.6115894 0.36657518
-9.5958881 1.6458887 0.36176574
-25.375 1.6620299 0.36283776
-25.777348 1.6735651 0.36557937
-25.219435 1.875 0.3619844
-25.162086 1.875 0.3605549
-9.6316471 1.9226902 0.36604267
-9.7749996 1.9494922 0.36046022
-25.875 2.0075707 0.36445129
-22.260836 2.0250001 0.36119795
-22.090389 2.0250001 0.36841345
-21.632122 2.0250001 0.36182833
-21.60038 2.0414133 0.36190328
-21.73999 2.0688615 0.36886141
-22.007557 2.1047828 0.36010855
-21.264248 2.125 0.36750114
-25.875 2.1377892 0.36268285
-21.49194 2.1364312 0.36935332
-22.034618 2.174444 0.36534196
-21.903326 2.1711369 0.36083686
-23.306602 2.1872663 0.36772144
-22.965561 2.1891615 0.36139953
-21.474998 2.1875207 0.36835814
-24.875 2.2088833 0.3658959
-23.24691 2.2270598 0.3662684
-24.825001 2.2332201 0.36938018
-25.786507 2.2750001 0.36566335
2.352114 2.2893925 0.36568964
-22.841089 2.3008649 0.3647576
-22.174999 2.3160937 0.36505482
-21.906136 2.375 0.36623606
-24.974998 2.3972962 0.36305332
-21.84511 2.4048898 0.36286792
-16.803087 2.4250002 0.36671472
-25.346214 2.4962139 0.36091852
-15.998596 2.5092688 0.36032569
-14.824999 2.5250731 0.36150116
-17.087948 2.5337043 0.36852676
-24.974998 2.5469818 0.36353713
-24.974998 2.5769243 0.36907625
-15.192703 2.5726097 0.36040592
1.825 2.5721369 0.36242187
-24.836348 2.5863464 0.36507708
-16.954794 2.5849314 0.36765954
-16.593908 2.5871859 0.36607295
-16.255701 2.609992 0.36356419
-16.262659 2.6101639 0.36594102
-16.148514 2.6145878 0.36761013
-15.725 2.6137249 0.36863464
-25.496105 2.6270657 0.36139411
-23.338772 2.625 0.36105582
-22.890242 2.625 0.36946642
-22.72757 2.625 0.36178464
-22.394796 2.625 0.36065
-17.030186 2.6333776 0.36549139
-15.707014 2.649524 0.3684625
-17.014124 2.6699901 0.36404535
-16.647711 2.6639905 0.36364466
-15.25357 2.6674585 0.3611111
-23.567532 2.675 0.36955893
-25.537792 2.689579 0.36140531
-15.064205 2.6838257 0.36487329
-13.834058 2.684058 0.36311895
1.912437 2.6876006 0.36243704
-16.979412 2.6981518 0.36157602
1.9183393 2.7027006 0.36833915
-24.975 2.7396274 0.36761838
-22.427437 2.7400413 0.3659749
-15.850613 2.7513132 0.36289203
-25.525 2.7668688 0.36177969
-21.416595 2.7750001 0.36143562
-21.278454 2.7750001 0.36518317
-25.525 2.7889285 0.36301604
-24.924999 2.785346 0.3697626
-14.358685 2.8049295 0.36872002
-14.294926 2.8052833 0.36443347
-13.725 2.8451691 0.36552516
-20.985571 2.8679521 0.36709982
-15.51136 2.8605409 0.36136019
-15.431489 2.8689885 0.36898851
-13.961344 2.8620739 0.36744168
-20.632002 2.875 0.36851311
-15.886532 2.8909411 0.36346811
-15.903746 2.9093647 0.3675077
-25.472672 2.925 0.36171719
-23.19558 2.9455817 0.36894265
-14.825001 2.9633536 0.36679405
-23.125 2.9802961 0.36156482
-15.559283 3.027935 0.36881125
-14.788192 3.0269222 0.3618075
1.825 3.0242634 0.36869794
1.875 3.0238199 0.36573577
-16.174862 3.0391548 0.36098397
-22.796467 3.0440226 0.36012566
-16.126865 3.0790279 0.36910561
-16.022753 3.0881233 0.36187655
-15.85141 3.089045 0.36095497
-14.90003 3.0975957 0.36251524
-22.356762 3.1191397 0.36848405
-24.01775 3.1201653 0.36499584
-23.812283 3.1377161 0.36873984
1.475 3.139518 0.36903429
-23.726789 3.175 0.36072034
-23.17251 3.175 0.3632018
-23.124182 3.175 0.36179894
-9.1906738 3.1749997 0.36658174
-8.4656124 3.175 0.36295849
1.475 3.1716871 0.36792898
1.9439242 3.1783862 0.3655616
-15.406678 3.1999788 0.3616451
-15.511411 3.2028799 0.36923939
-21.647854 3.2174654 0.36746532
-9.6830368 3.2462094 0.36696267
-9.6892776 3.2586665 0.36072236
-13.725 3.2739613 0.36109531
1.4750001 3.3503933 0.36797488
-12.618912 3.389204 0.36079609
-15.881683 3.3969741 0.3689484
-13.812246 3.3936229 0.36526322
-13.773572 3.3905663 0.36399791
-12.717168 3.4093342 0.36611417
-15.968409 3.4158878 0.36588785
-15.607209 3.4142818 0.36428189
-15.316601 3.4132957 0.36329585
-15.302445 3.4101448 0.36014453
-15.246098 3.4140661 0.36406612
-15.22368 3.4105754 0.36057544
-10.239879 3.425 0.36113954
-16.270464 3.4309907 0.36232716
-10.392445 3.4308639 0.36918515
0.027220232 3.4749999 0.36051026
-11.150795 3.5228472 0.36210251
0.64719534 3.5230093 0.36518908
-11.791931 3.5369685 0.36445004
-11.784836 3.5398207 0.36232829
1.3957689 3.545769 0.36693779
-12.507626 3.5613122 0.3613123
-13.766275 3.5750003 0.36682051
-12.618071 3.5819292 0.36485499
-13.091732 3.6084638 0.36804205
-13.493217 3.6114321 0.3636142
-12.776197 3.6102576 0.36025739
-12.6065 3.6130064 0.36350945
-12.166286 3.6194022 0.36940211
-12.007423 3.619128 0.36912787
-11.92885 3.6624732 0.36632273
-11.775595 3.6648955 0.36430126
0.58690953 3.6646681 0.36309043
-10.768205 3.675 0.36391324
-10.218741 3.675 0.36521995
-10.019796 3.675 0.36185002
1.475 3.6822562 0.36854553
1.4239148 3.7260849 0.36844915
0.49385315 3.7684405 0.36644912
0.77009213 3.812063 0.3669709
1.4738393 3.9238393 0.36987078
-12.711126 -6.200696 0.37639189
-12.678238 -6.1814747 0.37580425
-13.375196 -6.1750002 0.37408558
-11.707507 -6.1750002 0.37471795
-11.212854 -6.1749997 0.37225711
-10.717079 -6.1750002 0.37442362
-10.246672 -6.1513214 0.37901416
-10.880054 -6.144567 0.375
-10.65016 -6.1470351 0.37780601
-12.808767 -6.1296034 0.37960365
-12.129985 -6.124033 0.375
-13.25322 -6.1117897 0.375
-12.482027 -6.1176038 0.3748154
-13.270828 -6.1033077 0.375
-12.485089 -6.1082654 0.37167728
-12.059863 -6.1095629 0.375
-13.408112 -6.0959544 0.375
-12.498568 -6.0972571 0.37291229
-11.258856 -6.0967093 0.37398365
-10.184429 -6.0987539 0.3725526
-13.232368 -6.0851059 0.375
-12.94269 -6.0725174 0.375
-12.80195 -6.0728321 0.37283254
-12.71916 -6.0784297 0.37258965
-12.167704 -6.0725303 0.375
-11.881922 -6.0795493 0.37440675
-13.10171 -6.0621767 0.375
-13.074366 -6.0652199 0.375
-12.983047 -6.0650425 0.375
-21.075001 -6.0586619 0.37175855
-13.400148 -6.0542593 0.375
-10.353939 -6.0568428 0.375
-10.104212 -6.0546741 0.37957603
-15.324634 -6.0436816 0.37463439
-13.001523 -6.0432768 0.375
-12.925952 -6.0431533 0.375
-12.832973 -6.048336 0.375
-24.674999 -6.0331326 0.37182555
-13.160468 -6.0335422 0.375
-12.93148 -6.038837 0.375
-14.853754 -6.0209618 0.37903795
-13.088581 -6.0276632 0.375
-12.889481 -6.0227313 0.37726825
-10.322261 -6.0229897 0.37572861
-12.367224 -5.9972649 0.37658176
-24.73551 -5.9876399 0.37840578
-13.093605 -5.9877911 0.37667662
-12.48947 -5.9850206 0.37272424
-21.047585 -5.9769974 0.375
-14.839708 -5.9783478 0.37165248
-12.67274 -5.9773645 0.37037596
-12.567249 -5.9751382 0.37486139
-20.974539 -5.9683018 0.375
-20.833193 -5.9614058 0.375
-13.392053 -5.9691472 0.375
-13.332251 -5.940218 0.37668765
-22.755871 -5.9332952 0.375
-9.5388222 -5.9318228 0.375
-24.771561 -5.929769 0.37461203
-12.626066 -5.9276457 0.37342006
-11.870337 -5.9250002 0.37438393
-11.442085 -5.9250002 0.37716284
-11.330096 -5.9250002 0.37223679
-10.778475 -5.9250002 0.37597999
-10.055613 -5.9250002 0.37071514
-22.781858 -5.9147129 0.37378532
-24.775002 -5.886754 0.37774074
-21.143381 -5.8879118 0.375
-9.6347952 -5.8847961 0.3796638
-8.5494833 -5.88062 0.37781012
-8.2358065 -5.8788919 0.3769457
-8.1029863 -5.875 0.37203091
-8.0093355 -5.875 0.37456667
-7.9351559 -5.875 0.37922385
-21.11261 -5.8649578 0.375
-22.712423 -5.8568883 0.375
-21.236912 -5.8530073 0.375
-21.223692 -5.8580923 0.375
-23.902536 -5.8474636 0.37173223
-21.026091 -5.8305783 0.375
-21.169029 -5.8287277 0.375
-21.065664 -5.8236141 0.375
-21.042519 -5.8275695 0.375
-20.74295 -5.8288183 0.375
-17.051224 -5.8296347 0.37963468
-8.4954033 -5.8249998 0.37002861
-8.0370026 -5.8107452 0.37975153
-21.196514 -5.8009586 0.375
-21.008745 -5.806767 0.375
-20.991402 -5.7906003 0.375
-24.625 -5.7815609 0.37873849
-21.614609 -5.7858834 0.375
-23.748459 -5.7750001 0.37888926
-23.643131 -5.7749996 0.37605721
-23.180933 -5.7750001 0.37483144
-22.857056 -5.7750001 0.3750785
-22.234774 -5.7750006 0.37063104
-21.316648 -5.7772312 0.375
-22.387758 -5.7623529 0.375
-21.495075 -5.7605371 0.375
-23.375 -5.7574096 0.37617159
-23.126175 -5.7476583 0.37676054
-23.005608 -5.7453971 0.37499997
-21.038172 -5.7401538 0.375
-13.59293 -5.7469864 0.37696186
-24.618603 -5.737721 0.37819916
-23.418388 -5.7366843 0.375
-23.407932 -5.7390366 0.375
-22.989058 -5.7390051 0.375
-21.87949 -5.7338657 0.375
-21.310823 -5.7354345 0.375
-24.680698 -5.7211919 0.375
-23.525066 -5.7274923 0.375
-23.035219 -5.7202125 0.375
-22.940456 -5.7200527 0.375
-16.979839 -5.7230654 0.37015873
-23.523264 -5.7162662 0.375
-23.101021 -5.7180066 0.375
-23.006548 -5.7170324 0.375
-22.428215 -5.7125182 0.375
-22.331139 -5.7139621 0.375
-22.295069 -5.7152214 0.375
-22.23358 -5.7149706 0.375
-17.127134 -5.7112441 0.377134
-24.669399 -5.7008929 0.37499997
-22.431145 -5.7025728 0.375
-21.66515 -5.7000141 0.375
-24.631672 -5.6962228 0.37560016
-22.325613 -5.6967196 0.375
-22.231321 -5.6909013 0.375
-21.632456 -5.6989069 0.375
-21.004507 -5.6903839 0.375
-24.759687 -5.6848097 0.375
-22.444071 -5.6810513 0.375
-22.013142 -5.6844711 0.375
-21.934231 -5.6873722 0.375
-21.304455 -5.6875973 0.375
-8.9584455 -5.6833601 0.375
-23.970421 -5.6736217 0.37706766
-22.95941 -5.6797509 0.375
-21.201668 -5.6769528 0.375
-21.941776 -5.6671124 0.375
-20.964043 -5.6638155 0.37499997
-23.324997 -5.6558075 0.3750158
-23.016079 -5.6505432 0.375
-22.159309 -5.6523728 0.375
-22.081921 -5.6574907 0.375
-23.823391 -5.6428671 0.375
-23.537365 -5.6423802 0.37499997
-22.07489 -5.6437941 0.375
-21.312756 -5.648139 0.375
-14.625 -5.646841 0.37553498
-23.302685 -5.6323962 0.375
-21.991869 -5.6344972 0.375
-21.923733 -5.6372929 0.375
-21.330311 -5.6318407 0.375
-20.728724 -5.6367011 0.375
-23.889063 -5.6224318 0.37885237
-22.215342 -5.6273394 0.375
-22.474998 -5.6130986 0.37189406
-20.952896 -5.6035776 0.375
-25.600883 -5.5915694 0.375
-22.869793 -5.5951934 0.375
-22.227737 -5.5974979 0.3791059
-21.766434 -5.5928283 0.375
-21.216469 -5.5818653 0.375
-21.5271 -5.5750303 0.375
-9.0976887 -5.5749998 0.37386617
-25.574999 -5.5673189 0.37500003
-21.20286 -5.5557446 0.375
-20.988976 -5.5542507 0.375
-22.727037 -5.5473666 0.3780545
-22.087234 -5.5455847 0.375
-21.194777 -5.5408373 0.375
-9.0211887 -5.5454512 0.37690571
-21.267172 -5.5393081 0.375
-13.500143 -5.5348959 0.37980515
-8.917038 -5.5320539 0.375
-23.093264 -5.5265551 0.37733305
-22.943399 -5.5250001 0.37365949
-22.228567 -5.5250001 0.3720032
-13.903555 -5.5250001 0.37571537
-13.746051 -5.5102139 0.37531209
-21.030153 -5.4928722 0.375
-9.3285904 -5.4855089 0.375
-16.375 -5.4656506 0.37713572
-9.3250971 -5.4429517 0.375
-14.701563 -5.4344783 0.37026101
-9.2963419 -5.4216337 0.37668315
-9.2480898 -5.41366 0.375
-8.9940567 -5.4124269 0.37644917
-8.8856707 -5.4160438 0.375
-9.1728249 -5.4021645 0.375
-15.174314 -5.3984442 0.37811106
-14.883492 -5.3796277 0.37037209
-14.65227 -5.3793526 0.37064776
-14.625 -5.3792882 0.37184194
-9.1315527 -5.3249998 0.37704408
-8.9250374 -5.3249998 0.37384459
-13.675001 -5.2520332 0.37071496
0.76594245 -5.2451692 0.375
0.7905696 -5.2474737 0.37082815
0.72017097 -5.1497507 0.37741452
0.6764127 -5.0749998 0.37880343
0.78135741 -5.029109 0.37817872
-25.174999 -5.0028772 0.37340879
0.81160539 -4.9996767 0.37564635
1.6214027 -4.8550415 0.37140277
2.0039492 -4.8227949 0.37215328
-25.563204 -4.7750001 0.37920281
1.872295 -4.7710681 0.37770501
1.8742702 -4.7609444 0.37572977
-25.525 -4.7561879 0.37773305
-25.674437 -4.7244358 0.37510008
2.0275781 -4.6901069 0.375
2.483463 -4.6334629 0.37183857
1.9959552 -4.5901909 0.375
2.0227246 -4.5963755 0.375
-25.575001 -4.5678186 0.37096372
-24.803787 -4.5343814 0.37521455
-24.740957 -4.506196 0.37428111
-21.035976 -4.4749999 0.37406272
-20.981237 -4.4749999 0.375532
2.0133569 -4.4525404 0.375
-16.862648 -4.4126463 0.37892967
-24.717316 -4.4096313 0.37633878
-17.143078 -4.4069214 0.37451476
-13.525 -4.4027777 0.37413579
-21.046965 -4.3852983 0.375
-16.839607 -4.3743453 0.37565458
-16.798323 -4.3722248 0.37777558
-14.734449 -4.375 0.37132949
-9.6451597 -4.375 0.37281609
2.0224392 -4.3740311 0.375
-21.316774 -4.3692255 0.375
-21.139927 -4.3544073 0.375
-16.695196 -4.3583779 0.375
1.9749999 -4.3539944 0.37902594
-16.724369 -4.3335662 0.375
-14.625 -4.3372111 0.37008154
-21.215572 -4.3260264 0.375
-16.508194 -4.3249998 0.37015307
-16.307034 -4.3223944 0.375
-15.609397 -4.3249998 0.37655318
-14.984542 -4.3249998 0.37712815
-21.324324 -4.3185234 0.37499997
-21.284771 -4.3076797 0.375
-21.148142 -4.3027725 0.375
-21.131454 -4.3032141 0.37499997
-16.289806 -4.3079605 0.375
-9.4773188 -4.3036938 0.37775034
-21.375 -4.2906413 0.37073097
-15.790258 -4.2921753 0.37883294
-14.668699 -4.2903824 0.375
-21.001873 -4.2888298 0.375
-14.644825 -4.2849917 0.375
-21.091614 -4.2773643 0.375
-21.065018 -4.2760873 0.375
-20.765341 -4.272675 0.378488
-17.224579 -4.2717338 0.375
-16.954351 -4.2765131 0.37802607
-14.844275 -4.2755332 0.37563998
-21.171751 -4.2621422 0.375
-17.214338 -4.263773 0.375
-16.384357 -4.2691135 0.375
-17.244349 -4.2569461 0.375
-16.648218 -4.2526612 0.375
-9.5150986 -4.2566133 0.37535372
-17.222576 -4.2494593 0.375
-15.622188 -4.2430801 0.375
-15.601208 -4.2432899 0.375
-9.5050955 -4.2452688 0.37751928
-14.700991 -4.2396402 0.375
-9.4355688 -4.230979 0.3704102
-17.15325 -4.2230878 0.375
-16.708359 -4.2249923 0.375
-16.362835 -4.2202892 0.375
-15.515761 -4.223876 0.37387601
-9.4985847 -4.2159014 0.375
-20.917213 -4.2028713 0.375
-17.252785 -4.1993451 0.375
-17.13496 -4.1964326 0.375
-16.391987 -4.1949339 0.375
-15.812496 -4.1972685 0.37255919
-21.150036 -4.1820936 0.375
-21.008545 -4.1810322 0.37991858
-17.148945 -4.182364 0.375
-17.012545 -4.1821008 0.375
-16.796753 -4.1829486 0.375
-16.359234 -4.1814675 0.375
-9.4749098 -4.184721 0.37747553
-16.917938 -4.1762838 0.375
-16.11808 -4.1728239 0.375
-21.150017 -4.1608014 0.375
-16.999096 -4.1607981 0.375
-16.125534 -4.1615338 0.375
-21.295858 -4.1594071 0.375
-16.77832 -4.1543918 0.375
-16.742449 -4.1582932 0.375
-16.104027 -4.1584582 0.375
-16.17848 -4.1416473 0.375
-9.5384569 -4.1418676 0.375
-16.897549 -4.1392007 0.375
-16.760601 -4.1216645 0.375
-13.975379 -4.125 0.3798804
-17.211767 -4.1197209 0.375
-16.831858 -4.1142464 0.375
-16.746412 -4.1109772 0.375
-16.884838 -4.1024446 0.375
-16.05998 -4.1063833 0.375
-16.701107 -4.0905819 0.375
-16.387703 -4.0969419 0.375
-16.157461 -4.0961246 0.375
-9.5256138 -4.0919118 0.375
-17.128525 -4.0717483 0.375
-16.820236 -4.0732865 0.375
-16.691008 -4.0749006 0.375
-17.183777 -4.057673 0.375
-17.012131 -4.0585332 0.375
-16.023855 -4.051291 0.375
-14.175001 -4.0557165 0.3708874
-9.6437836 -4.0472794 0.37150374
-9.5764751 -4.04634 0.375
-24.674999 -4.0387459 0.37564939
-16.197395 -4.0310926 0.375
-15.99352 -4.0342035 0.375
-9.0806723 -4.0303597 0.37531263
1.9836541 -4.0336542 0.37534967
-16.90106 -4.0277996 0.375
-16.986586 -4.0127416 0.375
-16.997265 -4.0005918 0.375
-15.200962 -4.0037384 0.37029958
-7.0854664 -4.0014467 0.37789258
-5.4981155 -4.0064859 0.37123063
-1.7946805 -4.0070744 0.37793219
-16.058365 -3.9958818 0.375
-7.0729885 -3.9998808 0.37476206
-5.31493 -3.9951398 0.37693706
-15.915222 -3.9896064 0.375
-14.755742 -3.9871955 0.37853125
-15.193936 -3.9760718 0.375
-9.4866638 -3.9780757 0.375
-8.9531403 -3.9749999 0.37391618
-6.3728061 -3.9763596 0.37691614
-5.3113852 -3.9751565 0.37515664
1.9750001 -3.9720802 0.37925017
-15.191864 -3.9606013 0.375
-2.6177008 -3.9603238 0.37864959
-2.2593403 -3.9641256 0.3797853
-13.675 -3.9503186 0.37117255
-2.2750001 -3.955019 0.37056464
-2.2687426 -3.9509883 0.375
-6.824862 -3.9437587 0.37827635
-7.1238651 -3.9368212 0.375
-6.7712388 -3.9336936 0.37993181
-6.6697855 -3.9330935 0.375
-16.13554 -3.9255109 0.37551111
-15.274554 -3.9246418 0.375
-9.5396404 -3.9260747 0.375
-2.2511177 -3.924644 0.375
-1.6382354 -3.922101 0.375
1.9409966 -3.9250002 0.37125808
-16.128807 -3.9143121 0.375
-14.799786 -3.9168611 0.37539941
-6.7233038 -3.9196782 0.375
-4.0005493 -3.9197376 0.37390074
-2.6801686 -3.9172595 0.37759674
-2.6738346 -3.9173586 0.37882063
-15.354986 -3.9046476 0.375
-9.5112209 -3.9061058 0.375
-15.573647 -3.8928547 0.375
-4.826293 -3.8900948 0.37629277
-2.693006 -3.8938925 0.37990502
-2.3503826 -3.8958912 0.37525499
-2.2664142 -3.8984144 0.375
-15.519648 -3.8833351 0.375
-9.4883451 -3.8801835 0.375
-6.8243933 -3.8829312 0.375
-16.073862 -3.876965 0.37556964
-6.4273734 -3.8784287 0.3773734
-2.7460399 -3.8704367 0.37699646
-1.765633 -3.8737252 0.37436259
-1.6302798 -3.8772018 0.375
0.5303033 -3.8728197 0.37718016
0.54816961 -3.875 0.37385127
-14.97678 -3.8635986 0.375
-6.3839178 -3.8666859 0.37560362
-3.6209259 -3.8671575 0.37092593
-15.550519 -3.8596985 0.375
-0.45672467 -3.8419118 0.3794831
-6.7087426 -3.8378704 0.37838677
-2.2559817 -3.8348789 0.375
-16.120403 -3.8275824 0.375
-8.9492645 -3.8256128 0.37561274
-7.1413894 -3.8228369 0.3767474
-7.13694 -3.8222773 0.37063241
0.52151024 -3.8232553 0.37477535
-15.253366 -3.8197198 0.375
-1.6100204 -3.8113353 0.375
-15.881294 -3.8037505 0.37993312
-8.9422264 -3.807379 0.375
-14.876705 -3.792207 0.375
-1.8157539 -3.7963738 0.37837803
0.14916089 -3.799161 0.37295812
-3.6342695 -3.7821045 0.37100855
-1.5844089 -3.7827187 0.3733097
-1.2139562 -3.7879856 0.37679374
-15.898727 -3.7708292 0.37780333
-5.4854612 -3.7707086 0.37929147
1.045235 -3.7750001 0.37414721
1.6438696 -3.7750003 0.37035632
1.7226981 -3.7750003 0.37056044
-15.897935 -3.7660332 0.375
-15.386471 -3.7673991 0.375
-14.843367 -3.7634006 0.375
-14.80962 -3.7660661 0.375
-8.9621792 -3.7658663 0.375
-5.3946276 -3.7684717 0.37942019
-15.574751 -3.7540565 0.375
-15.2386 -3.7526307 0.375
-8.1468058 -3.7565422 0.375
-7.1279011 -3.7515953 0.37790084
-6.1252451 -3.7531536 0.37524483
-15.60172 -3.7417488 0.375
-8.9486809 -3.7460885 0.375
-5.1752605 -3.7427382 0.37204629
-1.9487249 -3.7412736 0.37686455
-14.862093 -3.7359524 0.375
-2.1284385 -3.7390552 0.37124252
-1.1843634 -3.7319045 0.37968165
-15.345988 -3.7278943 0.375
-8.386281 -3.720104 0.37010413
-8.3103523 -3.7246249 0.37462479
-6.4161582 -3.7250001 0.37083921
-6.0875893 -3.7249999 0.37300324
-3.743916 -3.7243571 0.37435699
-3.2963939 -3.7280302 0.37803051
-3.1264091 -3.7298574 0.3798576
1.8544216 -3.7220521 0.37406814
-15.974288 -3.7109046 0.375
-15.583601 -3.7187743 0.375
-15.261477 -3.7187216 0.375
-14.84409 -3.7137914 0.375
-14.6924 -3.7173562 0.375
-2.4760556 -3.7174242 0.3739444
0.14709856 -3.7163377 0.375
-16.241064 -3.7062111 0.375
-14.658738 -3.7007399 0.375
-16.005962 -3.6955292 0.375
-15.927169 -3.6977839 0.375
-15.909391 -3.6902528 0.375
-14.957662 -3.6960402 0.37685061
-8.9618435 -3.6989715 0.375
-15.437719 -3.683404 0.3771576
-13.625175 -3.6899986 0.37517494
-9.4959106 -3.6866171 0.375
1.7608699 -3.6839023 0.375
-15.887289 -3.6780806 0.375
-15.154041 -3.6785519 0.375
-9.513196 -3.6757896 0.375
-2.1270092 -3.6790388 0.37298417
-17.268955 -3.6661205 0.375
-15.664889 -3.6677608 0.37499997
-15.529985 -3.667558 0.375
-15.398226 -3.6675932 0.375
-16.940205 -3.6525776 0.375
-15.619925 -3.65785 0.375
-14.622028 -3.6545877 0.375
-1.6976895 -3.6579771 0.37962085
0.16174239 -3.6574807 0.37926191
0.95715505 -3.6524794 0.375
1.7491974 -3.656873 0.37500003
-16.591785 -3.648633 0.375
-16.51325 -3.6426551 0.375
-15.144241 -3.6498747 0.375
-4.3217468 -3.6451228 0.37174678
-2.724087 -3.640451 0.3777335
-17.252916 -3.6317794 0.375
-17.070648 -3.6313879 0.375
-16.162521 -3.6389847 0.375
-15.338261 -3.6350136 0.375
-15.145699 -3.6351976 0.375
-2.6966782 -3.630877 0.3790471
0.13181199 -3.6316967 0.37511542
-16.675512 -3.625 0.37958175
-3.9772451 -3.625 0.37578359
-3.8343897 -3.625 0.37215236
-3.6541944 -3.625 0.37407562
-0.58557844 -3.6255651 0.37556511
1.8388903 -3.6249998 0.37525713
-17.274567 -3.6118755 0.375
-16.045 -3.6178164 0.375
-15.993686 -3.6103096 0.375
-9.0183907 -3.6109102 0.375
0.85837293 -3.6189451 0.37764293
-15.769958 -3.6075406 0.375
-15.747385 -3.6074071 0.375
-15.42577 -3.609942 0.37779772
-9.0167074 -3.609355 0.375
-16.069246 -3.598279 0.375
-15.975811 -3.5966635 0.375
0.084195219 -3.5974145 0.37835217
-16.13591 -3.587956 0.375
-9.6309671 -3.5867007 0.375
-9.5040226 -3.5854888 0.37102941
0.87729311 -3.5884743 0.375
-25.657848 -3.5749998 0.374226
-25.549278 -3.575 0.37126908
-24.849127 -3.575 0.37459558
-16.03054 -3.5743573 0.37499997
-15.992892 -3.5768325 0.375
-15.889736 -3.5780892 0.37808907
-15.828233 -3.5767238 0.375
-15.633458 -3.578939 0.37893897
-8.671114 -3.570744 0.37888592
-8.0156164 -3.5772624 0.37726238
-1.7720139 -3.5742953 0.37429538
-0.62199014 -3.5720296 0.37797028
-15.348331 -3.5689874 0.375
-14.62947 -3.5671196 0.37841058
-17.226782 -3.5547466 0.375
-15.146636 -3.5557306 0.375
-3.1797633 -3.5455503 0.37796631
-17.038597 -3.5309882 0.375
-1.875 -3.5396438 0.3798154
0.20415965 -3.5375211 0.37246412
-24.855934 -3.5250001 0.37792543
-16.213623 -3.5279925 0.37799242
-15.906082 -3.5299039 0.37990382
-1.2269031 -3.5250001 0.37063029
-0.79852754 -3.5250001 0.37193117
-0.5983302 -3.5250001 0.37654725
-0.12092768 -3.5210066 0.37507901
0.27500001 -3.5240474 0.37076196
-16.033283 -3.515533 0.375
-15.62062 -3.5136008 0.375
-15.082403 -3.5164058 0.375
-7.5965004 -3.5107503 0.37580687
-17.19846 -3.5008006 0.375
-17.089758 -3.5005143 0.375
-15.83468 -3.5031226 0.375
-15.061628 -3.5085444 0.375
-8.134861 -3.5062099 0.37383661
-15.668264 -3.492455 0.375
-8.1508303 -3.4986916 0.37654757
-16.531141 -3.4834762 0.375
-16.520338 -3.4810121 0.375
-16.470869 -3.4802339 0.375
-16.422361 -3.4829111 0.37803313
-15.890504 -3.4881682 0.37500003
-15.882563 -3.4843698 0.375
-8.9417849 -3.4821777 0.375
-0.097854465 -3.4896562 0.375
-17.204243 -3.473686 0.375
-15.705161 -3.4754798 0.375
-15.696325 -3.4719303 0.375
-15.487892 -3.4799247 0.375
-7.8604794 -3.4704356 0.375
-16.355373 -3.467361 0.375
-16.310614 -3.4611335 0.375
-14.725 -3.4605951 0.3731707
-7.63694 -3.4618607 0.37619978
-17.100475 -3.4529316 0.375
-15.819407 -3.4559016 0.375
-15.217106 -3.455091 0.375
-15.087872 -3.4512448 0.375
-9.0298643 -3.4572959 0.37073916
1.575 -3.4518249 0.37805015
-16.75481 -3.447062 0.375
-16.055862 -3.4477243 0.375
-15.147946 -3.4473357 0.375
-15.073112 -3.4439375 0.37499997
-14.877598 -3.4413257 0.37759784
-15.307378 -3.4301918 0.375
-15.283202 -3.434216 0.375
-14.833822 -3.4379129 0.375
-16.237711 -3.4279146 0.37499997
-16.22567 -3.4251628 0.375
-14.235433 -3.4216943 0.37720373
-7.7278357 -3.4291282 0.375
-16.623976 -3.4139731 0.375
-16.547422 -3.4150271 0.37500003
-15.697674 -3.4102645 0.375
-15.206112 -3.4128094 0.375
-14.874545 -3.4151239 0.375
-16.747587 -3.4034736 0.375
-25.73184 -3.3979678 0.375
-17.186857 -3.3941991 0.375
-16.035187 -3.3908005 0.375
-14.841831 -3.395391 0.375
-14.767423 -3.3978462 0.375
-25.765762 -3.384239 0.37113702
-17.264486 -3.3836315 0.375
-16.839018 -3.3830225 0.375
-16.689566 -3.3849721 0.375
-16.451298 -3.3828883 0.375
-16.307112 -3.3894243 0.375
-16.238691 -3.3872676 0.375
-14.893433 -3.3849387 0.375
-21.223932 -3.3766007 0.3748638
-16.472307 -3.3731115 0.375
-16.3564 -3.3769624 0.375
-15.313224 -3.3750162 0.375
-17.077852 -3.3621485 0.375
-15.377323 -3.3619707 0.37964684
-15.340961 -3.367209 0.375
-14.761083 -3.3699183 0.375
-7.7336597 -3.3652825 0.375
-17.149801 -3.3548689 0.375
-17.106461 -3.3570528 0.375
-14.943324 -3.3525376 0.375
-14.803753 -3.3511064 0.37500003
-8.932168 -3.3568645 0.375
-16.846207 -3.343344 0.375
-15.996948 -3.3424561 0.375
-15.924708 -3.3447132 0.375
-15.676614 -3.349865 0.375
-15.526712 -3.3441253 0.375
-16.831171 -3.3347301 0.375
-14.809664 -3.3309767 0.375
-14.707869 -3.3304195 0.375
-7.7040024 -3.3324561 0.375
-25.756729 -3.3231821 0.37621206
-17.003181 -3.3244576 0.375
-16.802006 -3.3280058 0.375
-16.568975 -3.3292203 0.375
-15.873566 -3.3290279 0.375
-15.571856 -3.3223941 0.37814394
-15.062149 -3.3225505 0.375
-15.003887 -3.3243937 0.375
-17.155491 -3.3127251 0.375
-16.702898 -3.314481 0.375
-16.10861 -3.3084669 0.375
-16.019567 -3.3071063 0.375
-15.966345 -3.3096199 0.375
-16.286993 -3.2968729 0.375
-15.898226 -3.2936182 0.375
-2.4262183 -3.2929125 0.375
-2.3675549 -3.2944741 0.375
-16.926483 -3.281013 0.375
-16.680721 -3.2822118 0.375
-15.768352 -3.2899396 0.375
-15.068747 -3.2851908 0.375
-14.115774 -3.2861989 0.375
-14.108737 -3.2867148 0.37499997
-16.859371 -3.2760618 0.375
-16.560705 -3.2756181 0.375
-15.769224 -3.2777534 0.375
-14.846008 -3.2710752 0.375
-13.787806 -3.2750003 0.37845877
-15.327774 -3.2631497 0.37777442
-15.297855 -3.2698369 0.375
-9.5139141 -3.2649245 0.37902734
-15.946733 -3.2508793 0.375
-15.819588 -3.2538257 0.375
-16.512362 -3.2445788 0.375
-15.678686 -3.2498758 0.375
-14.797096 -3.2454324 0.375
-14.719496 -3.2415628 0.375
-7.725853 -3.2444644 0.37585306
-17.124733 -3.2378125 0.3758049
-16.696859 -3.2302234 0.375
-16.616249 -3.2342336 0.375
-14.925452 -3.2379937 0.375
-14.792345 -3.2361708 0.375
-14.166478 -3.2332726 0.375
-13.73174 -3.2344742 0.37724644
-5.6139135 -3.2333941 0.375
-23.85183 -3.2249999 0.37050176
-16.721357 -3.2235205 0.37943831
-15.153492 -3.2208359 0.375
-15.124534 -3.2236655 0.375
-6.8709826 -3.2288737 0.37509587
-17.049358 -3.2160397 0.375
-16.03618 -3.2143893 0.375
-14.866166 -3.2162569 0.375
-14.738665 -3.2198014 0.375
-25.733213 -3.2080708 0.37509501
-25.720497 -3.2013495 0.37049678
-16.555355 -3.2016492 0.375
-16.417097 -3.2056398 0.375
-14.93544 -3.2081573 0.375
-16.945459 -3.1909163 0.375
-16.811565 -3.1996772 0.375
-14.724358 -3.1964097 0.375
-9.5338688 -3.195478 0.37943473
-7.4415851 -3.1971951 0.37267593
-5.5900478 -3.1985426 0.375
-16.428581 -3.1826913 0.375
-16.409716 -3.1860499 0.375
-15.195187 -3.18788 0.375
-7.4431572 -3.1819711 0.37043786
-2.4465344 -3.1894677 0.375
-17.197308 -3.1714091 0.375
-16.999262 -3.1713014 0.375
-16.55608 -3.1794701 0.375
-16.114504 -3.1723068 0.375
-16.03529 -3.1729407 0.375
-15.968737 -3.1765318 0.375
-15.179786 -3.170429 0.375
-14.934772 -3.1799655 0.375
-8.5749998 -3.1707525 0.37996483
-8.1362715 -3.1750581 0.37877673
-7.2761893 -3.1712167 0.37002712
-5.5916128 -3.1761358 0.375
-16.906746 -3.1606944 0.375
-16.492859 -3.16833 0.37833503
-15.591062 -3.1649692 0.375
-15.356732 -3.168237 0.375
-9.6750002 -3.1602283 0.37029386
-7.0444717 -3.1656709 0.375
-5.9332829 -3.1664019 0.375
-2.1683099 -3.1655259 0.375
-15.855845 -3.150589 0.375
-15.623793 -3.1527209 0.375
-14.874965 -3.1517835 0.375
-8.2695704 -3.1545913 0.375
-2.1338844 -3.1578646 0.375
-15.167784 -3.1481426 0.375
-14.714909 -3.1411977 0.375
-25.174999 -3.138397 0.37221387
-9.4681683 -3.1385369 0.375
-9.2446299 -3.139688 0.3700583
-9.2350407 -3.1303899 0.37034965
-8.2835207 -3.1311803 0.375
-2.4667287 -3.131201 0.375
-16.163414 -3.1299064 0.375
-15.398478 -3.1277881 0.37778822
-13.864202 -3.125 0.37801147
-2.4112887 -3.1263306 0.375
-2.2084193 -3.1207261 0.375
-2.147239 -3.1207967 0.375
-16.076172 -3.1167796 0.375
-16.024927 -3.1153049 0.375
-15.579363 -3.1153941 0.375
-15.168616 -3.1105957 0.375
-7.0239658 -3.1199648 0.37596583
-25.174999 -3.1059208 0.37703413
-16.057161 -3.1071143 0.375
-15.463566 -3.1075358 0.375
-15.158798 -3.1010795 0.375
-15.095116 -3.1024537 0.375
-15.043116 -3.1027322 0.375
-16.158146 -3.0983639 0.375
-16.052177 -3.0906155 0.375
-15.778952 -3.091475 0.375
-15.524364 -3.0995564 0.375
-9.4714108 -3.092231 0.375
-9.3710442 -3.0941029 0.375
-2.5283389 -3.0947566 0.37915459
-17.138748 -3.0843935 0.375
-15.443502 -3.0885658 0.375
-15.392667 -3.0823438 0.375
-25.155853 -3.0760179 0.375
-17.190243 -3.0791273 0.375
-16.289425 -3.0700009 0.375
-14.773025 -3.0790985 0.37697524
-7.7043948 -3.0733051 0.375
-6.2181206 -3.075 0.37670225
-4.2653217 -3.075 0.37325719
-16.333687 -3.0687842 0.375
-14.909893 -3.068316 0.375
-8.2745838 -3.0661769 0.375
-7.759088 -3.0662408 0.375
-2.5554011 -3.0688622 0.375
-2.4879665 -3.0617335 0.375
-2.2711618 -3.0667012 0.375
-16.217628 -3.0509729 0.375
-16.053436 -3.0557847 0.375
-15.400995 -3.0574431 0.375
-6.9244099 -3.0529251 0.37734371
-2.3592348 -3.053205 0.375
-15.224573 -3.0402155 0.375
-7.43466 -3.0433562 0.3783699
-6.9646592 -3.040848 0.37923944
-14.875906 -3.0375624 0.375
-13.524999 -3.0311301 0.3715328
-8.2196684 -3.0342026 0.375
-7.7348189 -3.0368075 0.375
-6.9971066 -3.0346107 0.37835458
-2.6084113 -3.0354323 0.37499997
-2.2916467 -3.0396132 0.37500003
-2.219717 -3.0396736 0.375
-17.095659 -3.0250001 0.37358373
-16.320118 -3.0253131 0.375
-7.6757231 -3.0221062 0.375
-5.5233941 -3.0211823 0.375
-9.4555073 -3.0140302 0.375
-7.2359967 -3.0121815 0.37499997
-5.8450565 -3.0029681 0.375
-2.675 -3.0026343 0.37391654
-2.5974238 -3.0098796 0.37245935
-8.1612415 -2.9948213 0.375
-5.783958 -2.9954073 0.375
-2.2518141 -2.9909897 0.375
-9.4301748 -2.9806547 0.375
-7.7276487 -2.9812608 0.375
-7.3110008 -2.9899139 0.37477115
-6.9392486 -2.9821382 0.375
-6.1004462 -2.9810076 0.37410724
-4.2985201 -2.9887183 0.37204057
-7.7055378 -2.9792078 0.375
-7.6952848 -2.9742382 0.375
-7.2915196 -2.9791381 0.375
-6.1250424 -2.9784956 0.37144059
-2.675 -2.9792755 0.37916124
-2.4492624 -2.9760907 0.375
-1.6768326 -2.9731672 0.3756142
-1.6633058 -2.9712379 0.37876207
-8.5120468 -2.9630594 0.3760131
-6.1975174 -2.9627259 0.37763888
-5.8797646 -2.9526272 0.375
-8.3752594 -2.9435203 0.37804046
-8.1337461 -2.9488242 0.375
-5.615941 -2.9351044 0.375
-5.8931026 -2.9254141 0.375
-5.8691139 -2.9276834 0.375
-6.9123492 -2.913249 0.375
-5.7013097 -2.9121425 0.375
-6.9153242 -2.9061146 0.375
-6.8981013 -2.9057779 0.375
-7.703826 -2.8971972 0.375
-6.8904829 -2.8973522 0.375
-7.0121584 -2.8888867 0.375
-2.292562 -2.8808861 0.37214267
-8.449748 -2.8736145 0.37777111
-5.5361376 -2.8749378 0.375
-5.4518995 -2.8704185 0.375
-2.1806641 -2.8755162 0.375
-5.7845035 -2.8621013 0.375
-5.6256428 -2.8635306 0.37500003
-5.3944025 -2.8696892 0.375
-2.2936511 -2.8661594 0.37644386
-5.7918906 -2.8519397 0.375
-5.6261549 -2.8480797 0.375
-5.5096321 -2.8456464 0.375
-5.3648458 -2.8486171 0.375
-25.274998 -2.8366697 0.3704676
-6.025414 -2.8309355 0.37541443
