# .PCD v0.7 - Point Cloud Data file format
VERSION 0.7
FIELDS x y z
SIZE 4 4 4
TYPE F F F
COUNT 1 1 1
WIDTH 1522
HEIGHT 1
VIEWPOINT 0 0 0 1 0 0 0
POINTS 1522
DATA ascii
2.1275749 -0.56071281 0.50356913
2.1721454 -0.56263173 0.50644755
3.129288 -0.56063825 0.50345737
3.1492763 -0.56101906 0.50402862
3.9883296 -0.56397498 0.50846243
4.0153341 -0.5601837 0.50277555
4.0296297 -0.56056267 0.50334394
4.0914664 -0.56191301 0.50536954
4.1048775 -0.56053102 0.50329649
4.8766165 -0.560435 0.50315249
4.8878288 -0.56063515 0.50345272
5.0880232 -0.56402922 0.50854385
5.2520552 -0.56079972 0.5036996
6.3194337 -0.56269592 0.50712955
6.8679848 -0.56448227 0.5092234
6.8818622 -0.56341958 0.50762939
11.325001 -0.56821239 0.50297296
1.5250001 -0.55260932 0.50049376
4.0809011 -0.5595597 0.50183958
4.7731218 -0.55118269 0.50306106
5.3120546 -0.55922794 0.50134194
6.5213404 -0.55118722 0.50484675
6.6814785 -0.55095458 0.50556469
11.325001 -0.54308343 0.50661993
11.375 -0.54883438 0.50005841
-4.5749998 -0.53171295 0.5043804
-4.5250001 -0.53483272 0.50122869
0.42500001 -0.53460109 0.50079417
3.8814616 -0.53997725 0.50561506
4.7546568 -0.53785992 0.50820315
6.5125704 -0.53872377 0.50115299
-4.5250001 -0.52994895 0.50784826
5.0805602 -0.52858585 0.50831908
1.6230935 -0.51709956 0.50129867
4.2373886 -0.51420158 0.50880241
4.3257728 -0.51842695 0.50528091
4.7530174 -0.51823866 0.50471598
4.7701206 -0.51822609 0.50467825
6.3593273 -0.5185281 0.5055843
6.5055399 -0.5166893 0.50277066
6.9256887 -0.5176779 0.50303376
6.9352961 -0.51708931 0.50126791
7.8315239 -0.51794642 0.50383937
-4.5761027 -0.50649381 0.50275934
3.8982677 -0.50173205 0.50797391
5.1674848 -0.50759828 0.50245273
1.5008857 -0.4947716 0.50665754
3.1830235 -0.49421883 0.50092906
4.0522361 -0.49506688 0.50349212
4.8960028 -0.49600291 0.50030255
5.1093073 -0.49913031 0.50973427
6.1371598 -0.49484169 0.50676012
6.5386305 -0.49985826 0.50014174
6.5971241 -0.4946053 0.5053947
6.7072144 -0.49278572 0.50096732
6.7974997 -0.49749953 0.50747973
7.7925096 -0.49250889 0.50242358
7.8605928 -0.49956298 0.50338864
11.379457 -0.49214435 0.50117123
3.180917 -0.48517033 0.50724864
3.9111857 -0.48881435 0.50545108
3.9889951 -0.48790392 0.50400716
0.92500001 -0.47176272 0.50798893
1.1347167 -0.47500002 0.50231737
1.3751467 -0.47499999 0.50973642
1.3837183 -0.47499999 0.50122899
1.3983711 -0.47500002 0.50512558
1.9673018 -0.47499996 0.50703573
1.9937282 -0.47499996 0.50674045
2.549119 -0.47500002 0.50717294
3.1510549 -0.47500002 0.50584841
6.4859095 -0.47978944 0.50318062
6.7131987 -0.47499999 0.50485039
6.727385 -0.47499999 0.50654912
6.7692738 -0.47499999 0.50752139
7.7609992 -0.47499996 0.50247258
7.7711854 -0.47499999 0.5078637
5.0519133 -0.46815774 0.50447321
6.875 -0.46694523 0.50494379
0.92500001 -0.45764798 0.50079882
1.925 -0.45954376 0.50966877
2.7613351 -0.455892 0.50450265
4.8249998 -0.45067087 0.50560498
7.6385822 -0.45549011 0.50462675
0.77499998 -0.44718891 0.50404567
2.925 -0.44612348 0.50207782
3.9249997 -0.44301546 0.50959551
6.1394463 -0.44195691 0.50333059
6.4833574 -0.44389501 0.50828582
6.4940391 -0.44754785 0.50245214
6.5870428 -0.44901121 0.50098884
0.77499998 -0.43708256 0.50712425
2.5403509 -0.43065837 0.50197363
4.875 -0.43375248 0.50193048
0.71554756 -0.42500001 0.501876
0.97047937 -0.42500001 0.50077283
1.0761127 -0.42500001 0.50852895
1.1423273 -0.42500001 0.50444812
1.5329779 -0.42500001 0.50031471
2.1962137 -0.42500001 0.50011325
2.2451837 -0.42500001 0.50348622
2.6460121 -0.42500001 0.50640243
3.0322492 -0.42500001 0.50157303
3.113456 -0.42500001 0.50841022
3.205184 -0.42500001 0.50676656
3.3360023 -0.42500001 0.50944179
3.3413296 -0.42500001 0.50270849
3.3529847 -0.42500001 0.50929451
4.0405998 -0.42500001 0.50625712
5.0964193 -0.42500001 0.50067985
5.1065645 -0.42500001 0.50764769
5.699996 -0.42500001 0.50037771
6.137929 -0.42660001 0.50560653
6.1881075 -0.42500001 0.50876087
6.8606205 -0.42500001 0.5023371
11.325 -0.39098531 0.50524366
11.387958 -0.35381439 0.50556397
11.375 -0.30710739 0.50856131
11.325 -0.29568627 0.50613874
11.324999 -0.2747466 0.50365639
11.375 -0.27854443 0.50973934
11.325 -0.26439303 0.50246298
11.326596 -0.1414403 0.50616509
11.362441 -0.125 0.50788862
0.4319472 0.52499998 0.50967246
0.46150908 0.52499998 0.50626951
0.78750008 0.52499998 0.5006817
0.79831684 0.52499998 0.50396979
0.89198118 0.52499998 0.50632805
1.1922131 0.52499998 0.50521135
1.2794679 0.52499998 0.50174063
1.3087122 0.52499998 0.50733382
1.4061323 0.52499998 0.50713122
1.4147427 0.52499998 0.5036726
1.5520223 0.52499998 0.50323713
1.7268581 0.52499998 0.50935221
1.7442553 0.52499998 0.5091483
1.9765619 0.52499998 0.5064733
2.0779612 0.52499998 0.50778788
2.1237185 0.52499998 0.50459844
2.2226048 0.52499998 0.5047065
2.3673737 0.52621686 0.50212073
2.5448704 0.52499998 0.50979817
2.6804414 0.52499998 0.50294214
2.7739868 0.52499998 0.50073349
2.8289831 0.52499998 0.50754011
2.9012361 0.52499998 0.50378484
3.1092942 0.52499998 0.50527275
3.2034881 0.52499998 0.50031501
3.255548 0.52499998 0.50991559
3.3289223 0.52499998 0.50683165
3.3322272 0.52499998 0.50362909
11.360111 0.52499998 0.50339663
0.42500001 0.53088081 0.50771815
2.5366619 0.53246474 0.50750732
2.7084062 0.53800678 0.50815696
2.8360887 0.5310204 0.50979537
11.325 0.53996944 0.50160491
2.7708595 0.54579592 0.50025839
0.72500002 0.5510236 0.50638497
1.7750001 0.55410874 0.50621617
2.3680747 0.55997932 0.5042237
2.5415492 0.5558275 0.50017595
0.47499999 0.56944698 0.50708133
2.7104552 0.56546044 0.50449091
1.4170519 0.57468116 0.50019944
1.7058047 0.57499999 0.50995123
1.7232828 0.57499999 0.50802112
2.2499592 0.57499999 0.50600916
2.6977808 0.57004851 0.50122118
0.72500002 0.58511817 0.50099492
1.314393 0.58560693 0.50832081
1.4643426 0.58527935 0.50901371
1.5753198 0.58272815 0.50085598
1.9185085 0.58149135 0.50350928
2.5364833 0.58797705 0.50777519
3.1864738 0.58024096 0.50778896
3.337136 0.59511149 0.5010739
0.72500002 0.60829395 0.50766361
1.807954 0.60795397 0.5042153
1.218913 0.61803627 0.50410873
1.3927528 0.61050558 0.50878382
2.3177021 0.61112273 0.50526202
2.3452668 0.61685437 0.50056303
2.5711207 0.6174888 0.50246638
3.4409227 0.61991245 0.50973731
2.5812173 0.62416798 0.50634801
3.7894962 0.625 0.50579941
3.8680773 0.625 0.50308746
3.8783245 0.625 0.50232166
4.0101433 0.625 0.50192368
4.2297926 0.625 0.50443643
5.122941 0.625 0.50761926
5.1451969 0.625 0.50961411
5.68927 0.625 0.50330561
5.8077493 0.625 0.50068164
6.0250001 0.62853825 0.50317621
6.114048 0.625 0.5015772
6.1450062 0.625 0.50919485
6.730124 0.62499994 0.50265944
6.804821 0.625 0.5077678
6.8158779 0.625 0.50059521
6.8239465 0.62500006 0.50758356
6.8372331 0.625 0.50065064
6.8506517 0.625 0.50917792
7.421957 0.625 0.50441086
7.5262117 0.625 0.50600725
1.2820402 0.63133925 0.50387943
1.8821893 0.63993752 0.5034318
2.8586657 0.63094628 0.50716108
6.1627717 0.63139313 0.50665724
7.554791 0.63745332 0.50479132
0.47499996 0.64497149 0.50564778
0.88042557 0.64901918 0.5087232
3.3909581 0.64698267 0.50692612
11.388368 0.6485244 0.50494826
-0.52499998 0.65266174 0.50281316
0.45706847 0.65992916 0.50239378
0.81870675 0.65794975 0.5061202
1.1667072 0.65916997 0.50125492
1.4129045 0.65080905 0.5092805
1.815701 0.65860927 0.50372487
1.959343 0.65950137 0.50175202
1.9902835 0.65934271 0.50151408
6.1614981 0.65527499 0.50474608
6.9596434 0.6539517 0.50196457
0.44217879 0.66148901 0.5047335
0.81275654 0.6623069 0.50596035
0.95299262 0.66036129 0.50304186
1.0575501 0.66111445 0.50417173
1.0891727 0.66417372 0.50876063
1.1239998 0.66370106 0.50805169
1.1837144 0.66243756 0.50615638
1.2800651 0.66484618 0.50978112
1.9553751 0.66269237 0.50653851
2.0070357 0.66461068 0.50941598
2.0766873 0.66332668 0.50748992
2.3428271 0.66138232 0.5045734
2.8604913 0.66532731 0.50323689
3.05564 0.66285056 0.50677574
3.2095659 0.66051275 0.50326902
3.2750034 0.668944 0.506832
4.3623028 0.6667009 0.50595433
5.2594714 0.66059262 0.5017069
6.0808296 0.66926646 0.50779933
6.0975127 0.66744137 0.5023241
6.1024261 0.66915089 0.50745279
11.390827 0.66103852 0.50125974
3.4180586 0.67617863 0.50771201
3.876267 0.67500001 0.50228906
4.0271697 0.67500001 0.50324059
6.6901293 0.67500001 0.5033173
6.713552 0.67500001 0.50364846
6.7671251 0.67500001 0.50138432
7.3455687 0.67581254 0.50443101
7.4771266 0.67887592 0.5049392
4.1394386 0.68153548 0.50334251
6.0019827 0.68650877 0.50572932
6.106319 0.68639517 0.50314265
6.0514154 0.69107318 0.5024668
6.8636088 0.69256604 0.50791329
9.6625633 0.69917625 0.50888252
2.8599036 0.70355511 0.5023554
3.4583948 0.7061289 0.50009197
3.8210099 0.70607138 0.5025925
5.1077571 0.70096034 0.50460833
5.6391788 0.70831668 0.50373155
9.615716 0.70711577 0.50358951
9.6361084 0.70931238 0.50212502
9.6402731 0.7012471 0.5075019
2.6932278 0.71878445 0.50635338
3.450444 0.71937287 0.50811863
3.768414 0.71813321 0.50439936
3.8616929 0.71789861 0.50369561
3.8725014 0.71859992 0.50579977
4.1485877 0.71959651 0.50878936
4.1664762 0.71822059 0.50466156
5.8625422 0.71003342 0.50631392
6.6380062 0.71963686 0.5089103
6.8427124 0.71807313 0.50421941
6.9175854 0.71856874 0.50275421
6.9406409 0.71792442 0.50377315
7.5056052 0.71128052 0.5056057
7.5385613 0.71257788 0.50015569
9.6275902 0.71032208 0.50145191
5.125 0.7234447 0.50162709
6.6822166 0.7251569 0.50335008
6.8052702 0.72961634 0.50232947
7.5095177 0.72427672 0.50951779
9.7084923 0.72452372 0.50704378
3.9749999 0.73258978 0.50173461
5.2185893 0.73504955 0.50576806
7.3319974 0.73038393 0.50911969
7.4812746 0.7355336 0.50526679
7.5003796 0.73137236 0.50675172
11.325 0.73465908 0.50065196
2.8181534 0.74666983 0.5044595
3.4184511 0.74517548 0.50535238
3.7801175 0.74121612 0.50964808
3.8821781 0.74442416 0.50346607
7.2891817 0.74853039 0.50146961
7.3113394 0.74165195 0.50834799
7.327157 0.74416423 0.50259966
11.325001 0.74776804 0.50562102
3.7819133 0.7539953 0.50426024
3.868691 0.75707722 0.50607318
5.2020311 0.7585969 0.50039536
6.7861366 0.75895834 0.50093752
7.2837629 0.75273383 0.50747454
9.7077084 0.75462902 0.50770813
2.8141832 0.76437116 0.50905675
3.8570743 0.7640599 0.50858986
3.8619456 0.76306659 0.50709987
3.887718 0.76349109 0.50773668
3.9579883 0.76249057 0.50623584
4.2526665 0.76379371 0.50819063
5.6944842 0.76314473 0.50721717
6.0495567 0.7613759 0.50456381
6.9137297 0.7648747 0.509812
7.2849598 0.76297796 0.50508088
-0.67499995 0.77566385 0.50281215
7.2723522 0.7827599 0.50948
11.375 0.78369838 0.50898904
7.2586985 0.79941368 0.50643092
8.674468 0.79644811 0.50498688
8.6994486 0.80506831 0.5030812
8.7765617 0.80211043 0.50796759
7.4546623 0.81329989 0.50466228
8.5408001 0.82611525 0.50919902
8.796463 0.82425237 0.50647348
9.5885162 0.82499999 0.50576347
9.7005882 0.8222878 0.5005883
11.325 0.8373993 0.50931644
8.5460815 0.84639454 0.50391781
8.9921465 0.84723324 0.50276673
9.0101824 0.84541667 0.5045833
9.027503 0.84320343 0.5067966
9.0714579 0.84268022 0.50731981
9.4115067 0.84906787 0.5009321
9.4379272 0.84086692 0.5091331
9.6729469 0.84459543 0.50335085
-4.5250001 0.85251868 0.50106776
8.6133518 0.85241985 0.50922793
8.9852686 0.85671186 0.50446337
9.6836281 0.85499907 0.50362885
11.325 0.85741651 0.50138712
9.7018232 0.87177867 0.50504446
7.2443652 0.88865542 0.50563526
9.364996 0.88404709 0.50690579
9.5223904 0.88585448 0.50329107
-4.650527 0.89976346 0.50052691
-0.46262199 0.89329141 0.50618899
7.2401104 0.89014703 0.5098896
8.5725355 0.89666456 0.50579947
9.4509859 0.89930922 0.50069076
8.7637434 0.90679359 0.50535798
9.0400352 0.90956616 0.50996375
-0.59078962 0.9171052 0.50909954
8.5706253 0.91475749 0.50451505
8.6947193 0.9149735 0.5051136
8.964407 0.91432416 0.50529647
9.4028435 0.9141537 0.50800288
11.375 0.91618031 0.50587833
-0.45836651 0.92500001 0.50962055
9.6130266 0.92732942 0.50370932
9.7598667 0.92613101 0.50873613
-0.44899151 0.93231869 0.50100845
0.48153698 0.93874443 0.50438339
0.50784254 0.93638557 0.50792158
-0.55776042 0.94868481 0.50513011
0.50511348 0.9411661 0.50075084
8.7158546 0.94381839 0.5067088
9.5077333 0.94136161 0.5086385
7.3590264 0.95764077 0.50764072
7.3681726 0.95067608 0.50067604
8.5851021 0.95510697 0.50510693
8.6544971 0.95068538 0.50068539
8.6730385 0.95829183 0.5082919
8.6836872 0.95618248 0.50618243
9.0036421 0.95364249 0.50680959
9.6762657 0.95063269 0.50512314
9.8553419 0.95927525 0.50534201
-4.5250006 0.96554863 0.50352985
-0.44486594 0.96151698 0.50513405
9.3469753 0.96342361 0.5030238
9.4543018 0.96426708 0.50643116
-0.57793951 0.9720605 0.5008837
0.57499993 0.97157037 0.50119829
9.1588545 0.97041923 0.50885439
9.4482832 0.97168636 0.50503123
9.6460114 0.97500002 0.50179744
9.6693954 0.97500002 0.50633901
9.7350111 0.97500002 0.50205654
9.7468376 0.97500002 0.50283837
0.42500001 0.98038602 0.50788265
-0.43441394 0.99203265 0.50736898
-0.42718941 0.99547911 0.50988758
0.4110176 0.99475944 0.50766891
-0.48754829 1.0019381 0.50811559
0.59747046 1.0037355 0.50620472
8.4339647 1.0038972 0.50573522
9.6911783 1.0089424 0.50882155
11.325 1.0027862 0.50752747
11.375 1.0002077 0.50434673
-0.48031837 1.0172848 0.50993121
0.60943723 1.0157535 0.5060513
9.6037073 1.0127461 0.50370693
-0.42500001 1.0285654 0.50789165
0.61265272 1.0204455 0.50162166
9.1853456 1.0205846 0.50430989
9.193367 1.0281074 0.50729746
9.2678347 1.0233469 0.50888437
9.3967123 1.0246563 0.50328767
9.6071911 1.027916 0.50719148
9.694272 1.0208672 0.50572783
11.325 1.0229206 0.50808352
9.1826439 1.0399654 0.50971472
9.1942034 1.0326083 0.50310969
9.2052937 1.0369357 0.50435477
9.2919636 1.0322642 0.50591195
9.5700045 1.0323122 0.50090027
-4.5250001 1.0467317 0.50151592
9.2006302 1.0406885 0.50310379
9.2731953 1.0437844 0.5020718
11.375 1.0413786 0.50663459
9.3000708 1.0504781 0.50007045
11.325 1.0578551 0.50656813
0.39438131 1.0622971 0.50496495
9.0249996 1.0603065 0.50727785
11.337921 1.0634978 0.50084227
11.342214 1.0667157 0.50942677
11.375 1.0683579 0.50307614
-4.6511803 1.0724695 0.50117999
-0.59386599 1.0716966 0.503299
-0.43021178 1.0742732 0.50534326
0.31698647 1.0821402 0.5062508
0.36871311 1.0876094 0.50603271
9.1022568 1.0855763 0.50225681
11.341064 1.0857295 0.50713009
8.3438797 1.0962338 0.50611991
9.1092834 1.0902194 0.50928289
9.4269228 1.0929829 0.50365525
9.482379 1.0917879 0.50285864
9.6865349 1.0903965 0.50521165
0.35197395 1.1045526 0.50542033
8.4563351 1.1078706 0.5063346
8.5008602 1.1021898 0.50086051
0.74978459 1.1185639 0.50986946
8.5006914 1.1131802 0.50069153
-4.6535025 1.1289294 0.50350213
-0.57499999 1.1268939 0.50481778
-0.42481649 1.125 0.50240964
-0.41709369 1.125 0.50036496
-0.23582387 1.125 0.50675648
-0.14684682 1.125 0.50596118
-0.12901326 1.125 0.50917536
-0.067532174 1.125 0.50251049
0.17921655 1.125 0.5036301
8.4743881 1.125 0.50646126
8.5232258 1.125 0.50856256
8.9093151 1.125 0.50571078
8.9101114 1.125 0.50611812
9.0249996 1.1234108 0.5046522
9.3098469 1.1226809 0.50984704
9.3142805 1.125 0.50251019
11.325 1.1239505 0.50528347
-4.5250001 1.134644 0.50848019
0.32258219 1.1306232 0.50974214
0.79133224 1.1365048 0.50543875
8.3403692 1.1353552 0.50963044
8.5594339 1.131043 0.50036985
-3.8360386 1.1461604 0.50674039
-0.38359788 1.1435988 0.5020079
-0.37745041 1.1462842 0.50624633
0.60691327 1.1443036 0.50569642
8.384593 1.1453308 0.50581414
8.5093126 1.1437905 0.50753582
9.3520498 1.1435078 0.50204945
-4.1750002 1.1514143 0.50129819
-3.5665107 1.1514034 0.50140333
0.79542542 1.1504366 0.50570154
8.6750002 1.1579604 0.50787568
8.9124146 1.1558133 0.50005668
9.4831581 1.1596256 0.50868487
9.491848 1.1586252 0.50818741
9.5666933 1.1588652 0.50806743
9.5710402 1.1593904 0.50780475
-3.5097015 1.1626599 0.50912845
-0.57499999 1.1627148 0.50497311
-0.51689076 1.1663482 0.50852191
-0.044615291 1.1646501 0.5044229
9.4989052 1.1622826 0.50635862
9.5721636 1.163734 0.505633
9.5986872 1.1675322 0.50373387
-4.125 1.1711599 0.50652474
-3.5175221 1.1737008 0.50682843
0.14746498 1.175 0.50107491
9.4862118 1.1700978 0.50257766
9.515255 1.1730907 0.50095463
-4.650466 1.1872669 0.50401157
-4.5249996 1.1846936 0.50286758
-3.5758514 1.1888984 0.50694919
-0.22433372 1.1801897 0.50226176
8.4094563 1.1888444 0.50438803
-0.22180855 1.1972668 0.50953764
8.7255526 1.1935492 0.50645089
9.4490557 1.1926972 0.5009445
-3.8672976 1.2008977 0.5061444
-3.7691596 1.2018079 0.50292021
-3.4613285 1.2068359 0.50162172
-0.51165253 1.2093632 0.50781834
8.3437624 1.2060224 0.50623697
8.5128613 1.2073233 0.50455427
8.6190071 1.2032584 0.50273454
-4.60853 1.2137309 0.50563449
-3.7006454 1.2168818 0.5053668
-3.6927943 1.2142648 0.50314736
-0.084976628 1.2134632 0.50961035
-4.5250006 1.2237294 0.50918865
-3.7278087 1.2235956 0.50655878
-3.3626385 1.225 0.50817645
-3.1907127 1.225 0.50701398
-3.0755906 1.225 0.50880641
-2.848259 1.225 0.50524759
-2.8013906 1.2249999 0.50864321
-2.7980726 1.225 0.50342441
-2.6475167 1.225 0.50035506
-2.6156278 1.2250001 0.50741237
-2.524636 1.225 0.50426173
-2.5026267 1.225 0.50036216
-1.9050847 1.225 0.50322998
-1.8502395 1.2249999 0.50778925
-1.5366919 1.225 0.50211185
-0.45162374 1.2249999 0.50087661
8.9858732 1.2257555 0.50325453
10.314376 1.225 0.50963253
10.330071 1.225 0.50085437
10.434534 1.225 0.50287354
10.441163 1.225 0.50011092
10.611015 1.2250001 0.50775778
10.633702 1.225 0.50347501
10.641093 1.2250001 0.5020166
10.728497 1.225 0.50750166
10.766111 1.225 0.50284946
10.776405 1.225 0.50980878
10.801527 1.225 0.50010538
10.815441 1.225 0.50920218
11.255785 1.225 0.50543773
-1.9985709 1.2348492 0.50738049
0.29298955 1.2356701 0.50379181
0.37688377 1.2346861 0.50562763
9.1843357 1.2376742 0.50632805
-4.5724363 1.2461504 0.50384945
-2.6035717 1.2420498 0.50595218
-2.2249999 1.2457147 0.50408953
-0.49018073 1.2446384 0.50746924
-0.15699227 1.2469983 0.50199527
8.3838825 1.2423413 0.50723517
8.6749029 1.2405046 0.50959295
9.1918793 1.2481658 0.50162786
10.304994 1.249177 0.50500399
11.375 1.2402269 0.5049383
-2.2249999 1.2564373 0.50415909
-0.22013013 1.2593905 0.5064556
-0.12266892 1.2571046 0.50958741
0.096432559 1.2557341 0.5038988
0.15201265 1.2551959 0.50470603
0.16591391 1.2548023 0.50529653
8.997117 1.2558705 0.50587058
9.0245924 1.2598462 0.50984627
9.0343981 1.2548995 0.5048995
11.325991 1.250654 0.50870824
-2.4411683 1.269725 0.50699323
0.22222798 1.2661585 0.50648528
0.85637683 1.2608982 0.5063768
8.6601334 1.2633514 0.50151587
-3.5499048 1.275 0.50787067
-3.5306494 1.275 0.50730544
-3.4327574 1.275 0.50945127
-3.3004506 1.275 0.50039512
-3.2935679 1.275 0.5011878
-3.0741186 1.275 0.50533092
-3.0664337 1.275 0.50073618
-2.9885252 1.275 0.50904918
-2.8718033 1.275 0.50951082
-2.8378026 1.2749999 0.50453436
-2.5559504 1.2716517 0.50595033
-2.5250492 1.2749999 0.50964797
-2.3946795 1.2735286 0.50679201
-2.3135839 1.2750001 0.50296474
-2.2871773 1.2749999 0.50531298
-1.798806 1.275 0.50951886
-1.7281616 1.275 0.50282085
-1.7059046 1.275 0.50492561
-1.5976055 1.275 0.50773066
-0.41239434 1.275 0.5082044
-0.32368338 1.275 0.50031686
-0.30991837 1.275 0.50815165
-0.14846265 1.275 0.50895292
0.23878881 1.275 0.50032794
0.24922508 1.275 0.50076163
0.32668 1.275 0.50781882
0.38748667 1.275 0.50686687
0.41754675 1.275 0.50440007
0.45921671 1.2750001 0.5038864
0.46993339 1.275 0.50345051
0.61788225 1.275 0.509884
0.79009527 1.275 0.5014146
9.5809956 1.2749999 0.50691932
9.5928535 1.2749999 0.509826
9.6463852 1.272686 0.50592858
9.7889357 1.275 0.5086205
10.334753 1.2774961 0.50656617
11.375 1.2715826 0.50923806
10.894336 1.2943362 0.50882274
11.375 1.2931805 0.50380683
10.515166 1.3051018 0.50510162
10.729632 1.3187666 0.50992143
10.759027 1.3170187 0.50903738
11.044055 1.3107212 0.50358176
11.225001 1.3191533 0.50182009
10.831442 1.3218038 0.50572336
10.807518 1.3325092 0.50505525
10.944791 1.3331156 0.5054732
11.075 1.3471251 0.5047949
10.854429 1.3558468 0.50584668
10.633666 1.3606118 0.50341767
10.648369 1.3622117 0.50581735
10.880231 1.3701692 0.50487602
11.046625 1.375 0.5046528
-4.5249996 -3.3864417 0.5192256
-4.5749998 -3.3754244 0.51063812
-4.5250001 -3.337605 0.51973474
-4.5749998 -3.3282328 0.51636863
-4.5250001 -3.2501051 0.51261079
-4.5250001 -3.2478793 0.51739717
-4.5749998 -3.2312407 0.51266003
-4.5749998 -3.2032342 0.51430148
-4.5837092 -1.5047115 0.51557702
-4.6473489 -1.4957005 0.51464975
-4.6172819 -1.4976515 0.51367426
-4.6634469 -1.4865528 0.51507103
-4.6750002 -1.439303 0.51027316
-4.6750002 -1.3917716 0.51715052
-4.5250001 -1.2410917 0.51296061
-4.5930872 -1.2254379 0.51622289
-4.5250001 -1.2008297 0.51402318
-4.6409998 -1.1845195 0.51651931
-0.50111252 -1.175 0.51346332
-0.2971729 -1.175 0.5105412
-0.22840117 -1.1750001 0.51622576
0.39714178 -1.1544539 0.51761937
-4.6611309 -1.1454234 0.51768565
0.033907216 -1.1461453 0.51276189
0.175 -1.1458596 0.51263636
-0.08838883 -1.1317033 0.51829672
-0.030692952 -1.1398571 0.5101428
0.40061459 -1.1309233 0.51646179
-4.6750002 -1.1234176 0.5143922
-0.51403826 -1.125 0.5185926
-0.49995562 -1.125 0.51222032
-0.45307767 -1.125 0.51303101
-0.40132397 -1.125 0.51895273
-0.31269893 -1.125 0.51506561
-0.26930293 -1.125 0.51625794
0.058011793 -1.1213851 0.5116266
0.072291434 -1.125 0.51628149
0.18410745 -1.1219641 0.5167219
-4.5749998 -1.1156981 0.51973546
0.15439957 -1.1101282 0.51469976
-0.57499993 -1.1028292 0.51036441
0.2144388 -1.1006868 0.51185369
0.43082842 -1.1063905 0.51129794
-4.6750002 -1.0963967 0.51769143
0.50715446 -1.0809486 0.51813996
-0.26107305 -1.075 0.51418316
-0.13081537 -1.0795584 0.51588351
-0.047198091 -1.075 0.51618874
0.00013192184 -1.075 0.51980686
0.52708721 -1.075 0.51960015
0.63234746 -1.075 0.51430839
0.74814707 -1.075 0.51236564
0.76002324 -1.075 0.51331472
-0.57499999 -1.0667279 0.5111081
-0.43242604 -1.067574 0.51701981
0.037757535 -1.0622425 0.51124239
0.057409413 -1.0666465 0.51576293
-4.5250001 -1.0589767 0.51494527
0.52499998 -1.0516037 0.5174039
0.54709488 -1.0593489 0.51550913
-0.45242429 -1.0475758 0.51731825
0.81630814 -1.0401889 0.51920539
-0.10575421 -1.0376267 0.51237315
-0.098723039 -1.0392814 0.5107187
-0.077694744 -1.0349256 0.51507443
0.52499998 -1.0390508 0.51926148
-4.5906034 -1.0207539 0.51894504
-0.31957972 -1.025 0.51049793
-0.30245346 -1.025 0.51496524
-0.28685907 -1.025 0.51706719
-0.2212448 -1.025 0.51449287
-0.21777019 -1.025 0.51622212
-4.668992 -1.0012244 0.51324105
-4.5749998 -0.99532282 0.51583683
0.52499998 -0.99599463 0.51217651
-4.6750002 -0.97601104 0.51087648
-4.5749998 -0.97902226 0.51855528
11.23953 -0.97500002 0.51329207
11.316015 -0.97500002 0.51045638
-4.5250001 -0.96710312 0.5143863
-0.49711171 -0.95288825 0.51581562
0.49579757 -0.95461667 0.51526588
0.62360233 -0.95136577 0.5118171
0.70577556 -0.95084155 0.51207918
0.72153628 -0.95279908 0.51807243
-4.5749998 -0.94662046 0.51682162
0.50316042 -0.94435376 0.5177201
-0.51482534 -0.93517464 0.51530468
0.57035422 -0.93069708 0.5193029
-4.6323895 -0.92828006 0.51350117
10.826319 -0.92499995 0.51002699
11.259461 -0.92500001 0.51995611
11.296276 -0.91759664 0.51112634
-0.57499999 -0.89762479 0.51272714
-0.52499998 -0.88803077 0.51480621
11.322668 -0.8825593 0.51977187
-4.6750002 -0.87207365 0.51623899
-0.57499999 -0.8586818 0.5147652
11.325 -0.85932696 0.5140065
11.375 -0.83786321 0.51473111
-4.6750002 -0.82191736 0.51318085
-4.5749998 -0.8244642 0.51201916
11.325 -0.82336295 0.51039588
11.397654 -0.80234516 0.51537263
-4.6358585 -0.79560113 0.51414168
-4.5749998 -0.7950592 0.51462698
-0.57499999 -0.79490519 0.5164929
-4.6380405 -0.77503586 0.51195908
0.94852316 -0.77499998 0.51797068
0.95503211 -0.77499998 0.5155437
-0.59472114 -0.75527883 0.51656127
0.77838302 -0.75454509 0.5148508
11.447562 -0.75992572 0.5126363
-4.6750002 -0.72162694 0.51836741
-4.632803 -0.72009152 0.51084119
0.73388726 -0.7164818 0.51166904
6.4831924 -0.71142066 0.5159471
11.434052 -0.71867394 0.51234776
6.4823422 -0.70962 0.51474667
6.5936785 -0.70860672 0.51407111
-4.6127615 -0.69960725 0.51184577
0.72881806 -0.69840503 0.5192728
11.445593 -0.69559276 0.51975244
-0.6567688 -0.68411565 0.51050937
-4.5896549 -0.67299074 0.51767623
0.73404789 -0.67994308 0.51142812
0.84416032 -0.67500001 0.51789713
-4.6222982 -0.65596712 0.51677507
0.73173285 -0.65344995 0.5149008
1.0227016 -0.64948845 0.51810509
-0.52499998 -0.63570321 0.51603103
0.73348194 -0.63576341 0.51227713
6.5660439 -0.63774502 0.51085031
6.6190758 -0.63769007 0.51907599
0.88108033 -0.625 0.51424867
-4.5250001 -0.61526 0.5151059
6.4894876 -0.61742753 0.51051205
6.5486994 -0.61845219 0.51578438
6.5412779 -0.58294022 0.51136863
6.6125641 -0.58191961 0.51256371
4.0140591 -0.57091767 0.51887655
4.0467038 -0.57014889 0.51772332
4.0870275 -0.57065582 0.51848376
5.6987996 -0.57007825 0.5176174
5.7433467 -0.57062161 0.51843244
6.3213644 -0.57158756 0.51988131
11.325 -0.57622045 0.51497906
0.42500001 -0.56315404 0.51446468
1.525 -0.56594074 0.51319796
3.1070299 -0.56830031 0.51495045
3.8893101 -0.56700075 0.5130012
3.9758029 -0.56787515 0.51431274
4.0992723 -0.56557494 0.51086241
4.2320833 -0.56736064 0.51354098
4.8722019 -0.56740487 0.51360726
4.9262867 -0.56024706 0.51153368
5.1466599 -0.56503749 0.51005614
5.216742 -0.56543684 0.51065528
5.2459579 -0.56630182 0.51195276
5.2556882 -0.56931955 0.51647931
5.678349 -0.56738704 0.51495135
5.7188129 -0.56835234 0.51502848
5.7884202 -0.56549609 0.51074415
5.8192296 -0.56723678 0.51335508
6.1778789 -0.56768656 0.5163638
6.3279953 -0.56130838 0.51430398
6.8358192 -0.56584042 0.51126063
4.3400168 -0.55096716 0.5159843
3.1785333 -0.54848325 0.51439965
6.3451557 -0.5481832 0.51833904
6.8217788 -0.54420644 0.51533777
0.45904815 -0.52114463 0.51921701
2.925 -0.52193451 0.51366991
3.1326425 -0.52118599 0.51392746
3.8789558 -0.52718502 0.51313281
4.1539922 -0.52170169 0.51510513
4.2750645 -0.5206157 0.51842362
4.2922792 -0.52043849 0.51815778
4.3155551 -0.5216527 0.51997906
4.3432884 -0.52101994 0.51305979
4.7390509 -0.52948159 0.51543051
5.1713777 -0.52114904 0.51922357
5.6383047 -0.52332968 0.51998895
6.1712132 -0.52210408 0.5163123
-4.5803089 -0.51969129 0.51607287
-4.5250001 -0.5150339 0.51512527
0.44356781 -0.51779974 0.51419973
1.5156698 -0.51236451 0.51508445
3.8805444 -0.51945561 0.51344663
4.3054171 -0.51678616 0.51267922
5.2558231 -0.51584822 0.51127231
6.4935365 -0.51172662 0.51973677
11.375 -0.51030862 0.51134795
3.239162 -0.50226235 0.51284707
4.1073098 -0.50730979 0.51692712
6.8090525 -0.50905257 0.51825225
7.8073549 -0.50735497 0.51783013
2.9250002 -0.4961018 0.51017427
3.905699 -0.49430084 0.51464021
4.8978472 -0.49784726 0.51552999
5.1733327 -0.49865788 0.5199976
6.1314206 -0.49140286 0.51536858
6.6072154 -0.48614466 0.51385534
6.6135283 -0.48708978 0.51291019
6.6312208 -0.48445433 0.51554567
6.7129116 -0.48708835 0.51339805
0.93947023 -0.47499996 0.51106161
0.9664169 -0.47500002 0.51840878
0.98130554 -0.47499996 0.51877111
1.0373218 -0.47499999 0.51645404
1.6670285 -0.47689766 0.51304299
2.2294533 -0.47499999 0.51051664
2.2522058 -0.47500002 0.51736927
2.5575895 -0.47500002 0.51001197
2.6424525 -0.47499999 0.51674789
2.6886024 -0.47499999 0.51026481
2.6913223 -0.47500002 0.517506
3.3413022 -0.47500002 0.5160259
5.1714196 -0.47142568 0.51425916
6.6304493 -0.47084165 0.51682496
6.7343187 -0.47500002 0.51152396
6.7576127 -0.47499999 0.5164094
6.7775607 -0.47500002 0.51412225
6.8066549 -0.47499999 0.5120278
7.6440554 -0.47499999 0.51647586
0.92500001 -0.46848488 0.51197487
1.6708078 -0.46802643 0.51871163
1.925 -0.46985719 0.51934326
2.925 -0.46893319 0.51706648
5.0286641 -0.46698186 0.51950359
4.0749998 -0.45269901 0.5128147
4.875 -0.4478581 0.51039654
2.7659326 -0.43132865 0.51139885
4.875 -0.4377088 0.5187481
5.0672626 -0.43636483 0.51411682
6.2750001 -0.43904507 0.51363909
6.6212435 -0.43520594 0.51748806
0.64934772 -0.42500001 0.51512456
0.66612726 -0.42500001 0.51316714
0.70606375 -0.42500001 0.51333195
1.0812972 -0.42500001 0.51742208
1.1529993 -0.42500001 0.51725334
1.325 -0.42635986 0.51439446
1.3742661 -0.42500001 0.51811332
1.4667678 -0.42500001 0.51571625
1.5925295 -0.42500001 0.51094306
1.936442 -0.42500001 0.51055825
2.0090528 -0.42500001 0.5158596
2.1850433 -0.42500001 0.51262283
2.1944547 -0.42500001 0.51444399
2.585079 -0.42499998 0.5141089
3.1438348 -0.42500001 0.51756895
3.3264072 -0.42500001 0.51944125
4.0582995 -0.42500001 0.51453835
4.842124 -0.42500001 0.51785684
5.0433822 -0.42500001 0.51067585
5.0952663 -0.42500001 0.51444227
5.2643347 -0.42500001 0.5170846
5.6353931 -0.42500001 0.51877689
5.6401749 -0.42500001 0.5169155
5.7970204 -0.42500001 0.51711142
5.8172803 -0.42500001 0.51354468
5.8246856 -0.42500001 0.51388836
6.1927085 -0.42500001 0.51657403
6.2032604 -0.42500001 0.51614523
6.8011084 -0.42500001 0.51535285
6.875 -0.42565724 0.51169646
7.7283244 -0.42500001 0.51825035
7.7802763 -0.42500001 0.51615155
7.8197727 -0.42500001 0.51222068
7.8406935 -0.42500001 0.5140276
11.325 -0.37433964 0.51035213
11.324999 -0.29636288 0.51211649
11.325 -0.17109393 0.51645565
0.76525801 0.52499998 0.51974857
0.78874981 0.52499998 0.51093793
0.84443086 0.52499998 0.51990342
0.8772831 0.52499998 0.5187825
0.92568666 0.52499998 0.5123744
0.9783479 0.52499998 0.51287425
1.0663853 0.52499998 0.51474702
1.1450572 0.52499998 0.51879537
1.1515296 0.52499998 0.51262969
1.2582631 0.52499998 0.51803195
1.4511361 0.52499998 0.51799947
1.9565302 0.52499998 0.51493675
2.1344714 0.52499998 0.51906925
2.2208571 0.52499998 0.5106445
2.2528076 0.52499998 0.5129534
2.3310146 0.52613354 0.51035726
2.57832 0.52499998 0.5188902
2.7546425 0.52499998 0.51915866
3.1837528 0.52499998 0.51801199
11.333836 0.52499998 0.5175494
11.367727 0.52499998 0.51704752
1.552304 0.54972059 0.5172497
2.8458824 0.54168326 0.51240361
11.375 0.55608183 0.51547539
1.4356554 0.56014442 0.51239944
2.7117307 0.56349933 0.51831365
2.8006151 0.56831026 0.51205206
2.8664627 0.56402189 0.51767719
1.9249998 0.57323819 0.51861548
2.2607508 0.57499999 0.51420057
2.3727708 0.57066637 0.51868612
2.5795858 0.57645583 0.51560998
2.6746135 0.57392955 0.51440024
2.8795755 0.57499999 0.51820856
2.8844924 0.57499999 0.51541787
3.1947203 0.57499993 0.51271611
3.2009823 0.57499993 0.51841664
3.2744179 0.57499999 0.51909888
3.3134742 0.57499999 0.51458305
3.3211782 0.57499999 0.51361108
3.375407 0.57540703 0.5183183
0.42500004 0.58455068 0.51648843
1.5664029 0.58783418 0.51228845
2.2874026 0.58384001 0.51431221
2.5302296 0.58216393 0.51715553
3.1806059 0.58512479 0.51659083
1.2940296 0.60597044 0.51912051
1.7631447 0.60835409 0.51062787
2.3040197 0.60140431 0.51715463
11.325001 0.60662842 0.51596564
-4.5250001 0.61610836 0.51245797
1.7686141 0.61503065 0.51424986
2.6165633 0.61213863 0.51172614
3.3560524 0.61053169 0.51156259
-4.5879154 0.62602949 0.51374567
1.4304872 0.62227786 0.51683366
1.7755634 0.62381029 0.519741
2.33179 0.62127465 0.51382405
2.5385728 0.62131906 0.51395726
2.5528657 0.62131608 0.51394832
2.8643212 0.62699914 0.51900262
3.4680848 0.62230802 0.51692426
3.7345719 0.62724864 0.51739347
3.7408745 0.625 0.5182234
3.7764044 0.625 0.51848143
3.8945861 0.62499994 0.51226449
3.9319532 0.625 0.5130595
4.1630597 0.625 0.51236373
4.1947842 0.625 0.51465577
4.2297564 0.625 0.51078719
4.2842531 0.625 0.51620239
4.3673677 0.625 0.51415539
5.0305667 0.62805003 0.51665032
5.0966034 0.625 0.51270521
5.1018467 0.625 0.51506394
5.1525984 0.625 0.5188176
5.2170839 0.625 0.51040882
5.6986837 0.62500006 0.51226974
6.0571156 0.625 0.51213807
6.7041931 0.625 0.51178855
6.7273769 0.625 0.51277941
6.744174 0.625 0.51050884
6.7733264 0.625 0.51663017
6.8693895 0.625 0.51099861
6.9454985 0.625 0.51338637
7.3776979 0.625 0.51855528
1.4224899 0.6357671 0.51747
1.5429155 0.63365936 0.51574385
2.2232869 0.63745618 0.51986134
2.8708267 0.63934863 0.51873982
3.4658422 0.63454413 0.51126337
5.6348047 0.63376397 0.51029342
-0.67500001 0.64154249 0.51920074
0.42500001 0.64179552 0.5185914
1.247927 0.64195096 0.51902395
1.2770381 0.64522767 0.51888549
1.8221239 0.6435681 0.51637137
5.268168 0.64752269 0.51475161
5.8676906 0.64837903 0.51403576
11.325 0.64421046 0.51217657
-4.5889459 0.65042943 0.51683807
1.5658244 0.65571344 0.514889
2.8746347 0.6508956 0.51848543
4.3663936 0.65218544 0.51209038
0.42500001 0.66581666 0.51538116
0.44390035 0.66858357 0.51537538
1.1247914 0.66981173 0.51721746
1.8178504 0.66411114 0.51378262
1.8896556 0.66559988 0.51089978
1.9739687 0.66610324 0.51165473
2.1691766 0.66942602 0.51663899
2.3649614 0.66614884 0.51172328
2.4199541 0.66853654 0.5153048
3.0104897 0.66509658 0.51014483
3.0745091 0.66860646 0.51540977
3.1504796 0.66782284 0.51423413
3.4664974 0.66899961 0.51224631
4.3651385 0.66465759 0.51020736
6.9699326 0.66971469 0.51739943
0.72881716 0.67036033 0.51804048
1.8944913 0.67129505 0.51944256
1.9646431 0.6704787 0.51821804
2.2001767 0.67113167 0.5191974
2.586499 0.67135328 0.51952994
2.6275971 0.67146415 0.51580077
3.2727542 0.67240685 0.5172205
4.0278492 0.67500001 0.51752281
4.0435171 0.67500001 0.51277274
6.1562262 0.67066365 0.51199102
6.1621561 0.67702168 0.51483124
6.8368549 0.67499995 0.51123929
7.3318653 0.67914677 0.51813388
5.0889158 0.68636119 0.51733571
7.4698339 0.68826544 0.51068217
9.6230001 0.68385714 0.51909518
3.278445 0.6984725 0.51466477
7.4594698 0.69719279 0.51442772
7.5183029 0.69541538 0.51830274
7.5619812 0.69128513 0.51198173
9.6516905 0.69536406 0.51142395
9.6630678 0.69358462 0.5126102
9.6850853 0.69284654 0.51310229
3.8127451 0.70521468 0.51370454
5.6308851 0.70670164 0.51617205
6.0712752 0.70759583 0.51609325
6.0848827 0.70248365 0.51349998
6.0921879 0.70079219 0.51684612
9.7135124 0.70946503 0.5114758
3.9273362 0.71688163 0.51632684
5.8698578 0.71630698 0.51728618
5.9536548 0.7106725 0.51916945
7.4150529 0.71161979 0.51161975
7.5565729 0.71909285 0.51318562
9.7194061 0.71456075 0.51940489
3.4430113 0.72048062 0.51144171
3.8755291 0.72188818 0.51566446
3.8885098 0.72272658 0.51817983
4.3338442 0.72333127 0.51999366
5.2522888 0.72199446 0.5159834
5.6788397 0.72253954 0.51348221
5.9544206 0.72290736 0.51872194
5.9600878 0.72297156 0.51891458
6.9588408 0.7214216 0.5142647
7.32897 0.72432083 0.51972365
7.5265608 0.72059071 0.51618135
6.7789769 0.73094058 0.51306862
7.279336 0.7390368 0.51632822
7.3247042 0.73568404 0.51431596
8.684 0.73952544 0.51047462
8.690959 0.7314983 0.51850164
5.8223314 0.74944466 0.51699579
6.0749998 0.748788 0.51280236
7.4910097 0.74760336 0.51361328
-0.65087283 0.75261855 0.51713443
-0.52499998 0.75216806 0.51464128
3.3269184 0.75710702 0.51924533
3.8795443 0.751302 0.51136696
6.7780795 0.75377989 0.5157603
7.4754004 0.75101161 0.51300579
7.4845963 0.75654733 0.51577365
2.7159355 0.7687735 0.51566029
3.2785957 0.76692259 0.5142135
3.8019013 0.76987028 0.51730543
3.8630683 0.76510918 0.51016378
4.2359657 0.76807737 0.51461601
5.7750802 0.76921487 0.51632226
5.800765 0.76945221 0.51667833
6.70823 0.76553035 0.51079559
6.76612 0.76721942 0.51332903
6.922688 0.76532811 0.51806492
9.5870762 0.7612865 0.51292342
5.1499853 0.77049637 0.51824456
6.7343016 0.7707969 0.51869535
6.8046441 0.77017903 0.51776856
7.2824416 0.77546138 0.51011693
8.7186632 0.77783054 0.512326
8.7514801 0.77853286 0.5179342
8.625 0.78130949 0.51645321
8.6736279 0.78371948 0.51765281
8.7329216 0.78119248 0.51261497
8.7429008 0.78086966 0.5132606
11.325 0.78032172 0.51101542
-0.67500001 0.79928994 0.51297456
-0.52499998 0.79534161 0.51181024
7.4362879 0.79955536 0.51084346
9.7168541 0.79281151 0.51685405
8.7318172 0.80324394 0.51569504
11.375 0.80114192 0.51749456
-4.5250001 0.81504202 0.51475322
8.5957594 0.81155348 0.51768607
-4.6677055 0.82135272 0.51939273
9.6433792 0.82830489 0.5183903
7.4618192 0.83044392 0.5118196
8.9794464 0.83625001 0.51610827
9.0892124 0.83576292 0.51423711
9.1100597 0.83900702 0.51099294
9.4236984 0.83386523 0.51613474
9.4748812 0.83827257 0.51172733
7.4649024 0.84167892 0.51490271
11.325001 0.85562694 0.51146168
7.4666009 0.86883825 0.51660061
8.8127842 0.86186773 0.51685643
-0.67374754 0.87625241 0.51362664
-0.47759449 0.87240553 0.51315463
7.4629035 0.8771807 0.51290321
9.3736963 0.87974447 0.51551104
9.497736 0.87968063 0.51563871
9.7098389 0.87197566 0.51286197
-4.6624074 0.88076258 0.51240724
-0.63404542 0.88031656 0.51063806
-0.62624401 0.88182223 0.51693374
-0.46724269 0.88275731 0.51753104
7.2398324 0.88087124 0.51016772
8.8081942 0.88123763 0.51795495
9.0425053 0.88252234 0.51747763
9.0773678 0.8887018 0.51366645
9.1202669 0.88119262 0.51261461
9.3545732 0.88187826 0.51124346
9.4757004 0.88410473 0.51408386
9.7257757 0.88151884 0.51925659
8.5713034 0.89157248 0.51212424
8.7829113 0.896173 0.51105624
11.325 0.89738584 0.5176158
-0.50662589 0.90805185 0.51032221
8.5357218 0.9095037 0.51427782
9.7940025 0.90419543 0.51480669
-0.58720398 0.9187969 0.51887947
7.4640217 0.91181123 0.51402152
8.5407476 0.91726297 0.517263
8.6190338 0.91240108 0.5124011
9.3906622 0.91680515 0.51753265
11.325001 0.91714692 0.51989943
11.375 0.9102388 0.5194329
-4.5250001 0.92603892 0.51671416
-0.57686937 0.92406535 0.51855218
-0.47589743 0.92499995 0.51554525
7.2794104 0.92786777 0.51617908
9.6131907 0.92500305 0.51317894
0.44477314 0.93110764 0.5158385
0.4502731 0.93291563 0.51312661
7.4190822 0.93416023 0.51316434
9.5166416 0.93910593 0.51089406
9.5292864 0.93704373 0.51724285
-0.43234366 0.94746512 0.51765627
9.7860918 0.94890332 0.51218885
11.375 0.94520462 0.5111807
-4.6620035 0.95359647 0.51200354
0.42500001 0.95487058 0.5183782
8.7189665 0.95499468 0.5129323
8.7210083 0.95956868 0.51701528
9.8694935 0.95886683 0.51949298
-4.6611643 0.96339965 0.51116419
7.3752112 0.96500576 0.51500571
7.3913784 0.96938574 0.5193857
8.6547003 0.96619451 0.5161944
9.7099419 0.96747077 0.51602721
9.8671398 0.96964151 0.5171392
9.7505617 0.97500002 0.51783526
9.8112907 0.97455007 0.51173997
8.4353294 0.98605055 0.5176329
8.5094385 0.98490334 0.51839781
11.375 0.98736989 0.51428962
-4.5250001 0.99254978 0.51390839
0.45642221 0.99840498 0.51051867
9.1800127 0.99645239 0.51497358
9.2867966 0.99723381 0.51758868
9.1852264 1.0056765 0.51022011
9.5726433 1.0045698 0.51278621
11.375 1.0052559 0.51833677
8.5168238 1.0196468 0.51682436
9.1939316 1.0102838 0.51323873
9.2485456 1.0196162 0.5101279
9.4655409 1.0171462 0.51255733
11.375 1.0129013 0.51173162
-0.53634012 1.0272384 0.51022089
0.3751179 1.025 0.51489764
9.5062122 1.0292078 0.51113856
8.5170336 1.034989 0.51703346
-4.5250001 1.0479934 0.51956272
-0.45010883 1.0467771 0.51040941
-0.44350278 1.0456889 0.51553893
9.3131828 1.0563121 0.51318371
11.325 1.0529346 0.51577282
-4.6685853 1.0693234 0.51858491
9.1114655 1.0669302 0.51146555
9.180274 1.0672579 0.51445198
11.325 1.0675581 0.51398522
-0.54866916 1.0755434 0.51104707
0.31614363 1.0797464 0.51371294
8.3682318 1.0792575 0.51648486
9.1140804 1.0753438 0.51407987
-0.53332198 1.0998116 0.51229453
8.3357935 1.0914962 0.51420617
9.0249996 1.0993133 0.51573461
8.462101 1.1032662 0.51210088
9.4267406 1.1095774 0.51471829
9.6818218 1.1045356 0.51529342
11.325 1.1089315 0.51799256
11.363549 1.1000247 0.51152438
-0.57610583 1.1113232 0.51298183
-0.39464375 1.1165667 0.5109784
0.75999719 1.1115263 0.51021343
8.4652748 1.1125691 0.51527399
9.311697 1.1148512 0.51169741
9.4246435 1.1139535 0.51763564
9.7514849 1.1125524 0.51670152
-4.5249996 1.1232321 0.51054877
-0.38201305 1.1235504 0.51895326
-0.22223791 1.125 0.51458776
-0.17985767 1.125 0.51266962
-0.12851503 1.125 0.51968992
0.12854907 1.125 0.513789
0.14520556 1.125 0.51550943
0.3237682 1.1278436 0.51729
8.4845333 1.125 0.51864463
8.551425 1.125 0.51828974
8.5626707 1.1256936 0.51332814
8.963562 1.125 0.51764572
9.1728067 1.125 0.51651275
-0.52574396 1.1329722 0.51553977
-0.39347255 1.1337781 0.51172078
0.048582193 1.1347992 0.51037335
0.30726981 1.1315589 0.51714361
8.6243629 1.1335701 0.5164299
8.8878002 1.1397388 0.51646668
9.3685102 1.1307923 0.5185101
9.6204109 1.1341783 0.51702607
9.6875153 1.1303376 0.51966244
9.7094307 1.137763 0.51223695
9.7152224 1.131458 0.51854193
-3.8443611 1.149619 0.51192844
9.4802389 1.1409929 0.5145244
9.5064182 1.1486906 0.51315475
-0.52343857 1.155319 0.51748478
0.73664075 1.1548465 0.51335919
8.3791208 1.1501172 0.51675868
9.5083675 1.1519835 0.51150823
-4.125 1.1641594 0.51057088
-0.51232481 1.1672744 0.51580161
0.18929656 1.1607034 0.51942366
9.4799671 1.1618929 0.51506567
11.325 1.1642619 0.5138005
-0.49674785 1.175 0.51918763
-0.48770893 1.175 0.51321775
9.3623381 1.1723115 0.51233792
-4.6590066 1.1864836 0.5192582
8.5804358 1.1841341 0.51401681
8.5969257 1.1894815 0.51051849
8.61269 1.1855521 0.51444781
8.6915703 1.1898164 0.51018363
8.7431641 1.1813574 0.5186426
8.8917189 1.1817503 0.51835388
9.4371614 1.1817766 0.51283824
11.348234 1.1829858 0.51163352
-3.6851845 1.1985838 0.51179188
-0.52465093 1.1916504 0.51667476
0.81229627 1.197278 0.51383942
-4.1709104 1.201663 0.51499456
-4.1594625 1.2045903 0.51938546
-3.7509 1.2006817 0.51204991
-0.50932407 1.2063518 0.51205689
-0.21202445 1.2086035 0.51031399
8.6072559 1.2067802 0.51096344
8.9174585 1.2006853 0.51381826
9.3688269 1.2001181 0.51882732
-3.6479115 1.2129059 0.51895291
-0.086999968 1.2126367 0.51208991
0.20070234 1.2164623 0.51205635
8.4477959 1.218559 0.51855904
8.805686 1.2161351 0.51212418
8.9307594 1.2181513 0.51659465
8.9686995 1.2178953 0.51079035
9.8055534 1.2199992 0.51536912
11.375 1.2181369 0.51772052
-3.3816516 1.225 0.51479131
-3.3492565 1.2249999 0.51100051
-3.1684375 1.2249999 0.51864696
-2.9576125 1.225 0.51843196
-2.8586874 1.225 0.51212829
-2.6817195 1.225 0.5174495
-2.5385277 1.225 0.51742047
-2.4878254 1.225 0.51197052
-2.2637846 1.225 0.51919317
-2.0082767 1.2293591 0.51385111
-1.9683397 1.225 0.51292968
-1.9283791 1.225 0.51441103
-1.813875 1.225 0.51075208
-1.7954085 1.225 0.51614517
-1.6979861 1.225 0.51934719
-1.5649276 1.225 0.51688302
-1.5428084 1.225 0.5164963
0.75395161 1.225 0.51822197
0.80272645 1.225 0.51053011
0.86099803 1.2207048 0.51099801
9.1434727 1.2205796 0.5161593
9.3202915 1.2295952 0.51558447
9.3359032 1.2202876 0.51557493
10.295527 1.225 0.51633728
10.355082 1.2249999 0.51260328
10.412399 1.225 0.51377869
10.426412 1.225 0.51915163
10.736378 1.225 0.51465911
10.778659 1.225 0.51862103
-4.5924768 1.2361356 0.51386428
-4.5360808 1.2396829 0.51031697
0.36452633 1.2317884 0.51142317
0.38027054 1.2326512 0.51683962
8.9813061 1.239086 0.51238859
-1.525 1.2475708 0.51087976
0.86208028 1.2436203 0.51208025
9.2700119 1.249059 0.51202941
9.7089605 1.2438796 0.51838785
-0.13071242 1.2536124 0.51608497
9.2182798 1.2510805 0.5130403
9.308362 1.2573376 0.51616877
10.29537 1.2595453 0.51141989
11.375 1.2553171 0.51087856
-0.4801178 1.2647643 0.51952636
8.4037485 1.2632616 0.51326156
8.430213 1.2696084 0.51960826
8.458539 1.2641627 0.51416266
8.4835987 1.264864 0.51486403
8.9803543 1.2606062 0.51429284
8.9917574 1.2669957 0.51699573
9.041853 1.2699018 0.51990169
9.18221 1.260434 0.51057875
9.8103657 1.2669848 0.51524419
11.375 1.2669948 0.51480097
-3.7733181 1.275 0.51537526
-3.6246247 1.275 0.51746172
-3.5580645 1.275 0.51360542
-2.8870401 1.275 0.51610732
-2.7566803 1.275 0.51511604
-2.4954214 1.275 0.51824242
-2.4519053 1.2710389 0.51378858
-2.3794861 1.275 0.51189792
-2.2633238 1.275 0.5171926
-1.9922643 1.275 0.5148105
-1.9868472 1.275 0.51426619
-1.9767404 1.275 0.51619375
-1.8702275 1.275 0.51254308
-1.8374553 1.275 0.51103216
-1.6670611 1.275 0.51808262
-1.5970287 1.275 0.51354241
-1.525 1.2714241 0.5186854
-0.32995179 1.275 0.5183984
-0.20275781 1.275 0.5168646
0.41304597 1.2750001 0.5172736
0.42373323 1.2749999 0.5194509
0.4391385 1.275 0.51094544
0.48541334 1.275 0.51296192
0.54608017 1.275 0.51145673
0.59564763 1.275 0.51594543
0.66878426 1.275 0.51088256
0.7737323 1.2750001 0.51648134
8.5635567 1.275 0.51235038
8.7899647 1.2750001 0.51690704
9.4902391 1.275 0.51464993
9.6013451 1.275 0.51161313
9.6389599 1.272485 0.51355463
10.295262 1.2721996 0.51149136
10.360881 1.2892797 0.51065278
10.880476 1.2804757 0.51233494
10.346067 1.2902956 0.51660615
10.363363 1.2969635 0.51750886
10.890745 1.2907454 0.51770145
10.385268 1.3046286 0.51787257
10.394666 1.3067248 0.51683617
10.417002 1.3162041 0.51887006
10.564451 1.3154628 0.51546282
10.585002 1.3186536 0.51865351
11.050133 1.3182847 0.51492685
11.070329 1.3159178 0.5113768
10.425 1.3367525 0.51556587
10.95606 1.3391315 0.51445317
11.075 1.3358111 0.51512575
10.621208 1.3458564 0.5136258
11.225933 1.3679901 0.5135538
11.343688 1.3654566 0.51585507
10.917077 1.375 0.51157278
11.241883 1.3749999 0.51701581
-4.5690875 -3.7734256 0.52499998
-4.5359678 -3.7732794 0.52499998
-4.536839 -3.7425928 0.52499998
-4.5530734 -3.7379289 0.52499998
-4.5406218 -3.7184978 0.52499998
-4.5362372 -3.7198396 0.52499998
-4.5519247 -3.6892481 0.52499998
-4.5418 -3.6875384 0.52499998
-4.5575061 -3.6773281 0.52499998
-4.5346074 -3.6331959 0.52499998
-4.5457602 -3.6073272 0.52499998
-4.5249996 -3.6008821 0.52861637
-4.5250001 -3.5862691 0.52830452
-4.537961 -3.5691895 0.52499998
-4.5424342 -3.5492611 0.52499998
-4.5606647 -3.5104966 0.52499998
-4.5340462 -3.5128045 0.52499998
-4.5616698 -3.5008454 0.52499998
-4.5622244 -3.4836478 0.52499998
-4.5351515 -3.4753044 0.52499998
-4.5584474 -3.4636805 0.52499998
-4.5250001 -3.4568644 0.52853906
-4.5749998 -3.4477515 0.52868742
-4.5441475 -3.4375353 0.52499998
-4.5749998 -3.3702543 0.52961206
-5.6750002 -3.3698297 0.5279724
-5.6344299 -3.3662841 0.52499998
-5.625 -3.3655407 0.52506196
-4.5749998 -3.3634422 0.52487636
-4.5250001 -3.3659825 0.52988207
-5.6392717 -3.345907 0.52499998
-5.6300883 -3.33234 0.52499998
-5.625 -3.3381252 0.52904963
-5.6681247 -3.328651 0.52499998
-5.6514058 -3.3100023 0.52499998
-5.640522 -3.3028057 0.52499998
-4.5749998 -3.3008385 0.52558035
-5.6471701 -3.2969513 0.52499998
-5.6749763 -3.279037 0.52499998
-4.5250001 -3.2712905 0.52151799
-4.5749998 -3.2601213 0.52757359
-5.6355424 -3.2214119 0.52499998
-5.6534643 -3.2147679 0.52499998
-5.625 -3.204824 0.52606887
-4.5749998 -3.1985278 0.52613974
-4.5250001 -3.1963899 0.52043241
-5.6573372 -3.1838031 0.52499998
-4.5749998 -3.1827273 0.52703989
-5.6707978 -3.1758263 0.52499998
-5.6487193 -3.1796837 0.52499998
-5.6350708 -3.1729684 0.52499998
-5.6816196 -3.16838 0.52866703
-4.5609746 -3.1512063 0.5258041
-4.5749998 -3.1484811 0.52268183
-5.6585832 -3.1361065 0.52499998
-5.6352553 -3.1300318 0.52499998
-5.6827393 -3.1241338 0.52499998
-5.7163229 -3.1177106 0.52499998
-5.6659994 -3.1116431 0.52499998
-5.625 -3.1170251 0.52854466
-5.7383451 -3.104917 0.52499998
-5.7033081 -3.1082883 0.52499998
-5.6404667 -3.0856576 0.52499998
-5.6319342 -3.0840216 0.52499998
-5.8150034 -3.0723548 0.52499998
-5.7336307 -3.0644228 0.52499998
-5.7159843 -3.0637417 0.52499998
-5.7904949 -3.0586004 0.52499998
-5.7829194 -3.0554311 0.52499998
-5.7780228 -3.0532961 0.52499998
-5.7222042 -3.0539789 0.52499998
-5.7129192 -3.0521164 0.52499998
-5.6830106 -3.048583 0.52499998
-5.7509346 -3.0343647 0.52499998
-5.8742838 -3.020864 0.52499998
-5.6600862 -3.02865 0.52499998
-5.6458211 -3.0223155 0.52499998
-5.9268408 -3.0194848 0.52499998
-5.8961039 -3.0128171 0.52499998
-5.8786116 -3.017024 0.52499998
-5.8751588 -3.0076447 0.52499998
-5.9345827 -2.9999878 0.52499998
-5.8446288 -2.9938705 0.52499998
-5.7995296 -2.996429 0.52499998
-5.6707659 -2.999397 0.52499998
-5.6504531 -2.9995465 0.52959371
-5.9313202 -2.9820769 0.52499998
-5.8957839 -2.9854741 0.52499998
-5.8094082 -2.9874804 0.52499998
-5.7427387 -2.9892144 0.52499998
-5.8516216 -2.9792733 0.52499998
-5.8488951 -2.9717202 0.52499998
-5.7927995 -2.9766717 0.52499998
-5.8840389 -2.9696698 0.52499998
-5.8319025 -2.9648438 0.52499998
-5.7882948 -2.9662127 0.52499998
-5.7417068 -2.9602196 0.52499998
-5.9373679 -2.9538357 0.52499998
-5.8961129 -2.9532909 0.52499998
-5.8619308 -2.9518557 0.52499998
-5.8512597 -2.9451482 0.52499998
-5.835495 -2.9404719 0.52499998
-5.8066359 -2.9439297 0.52499998
-5.7633576 -2.9462938 0.52499998
-5.7095723 -2.943717 0.52499998
-5.9618454 -2.9393642 0.52499998
-5.7120309 -2.9379685 0.52949017
-5.8732123 -2.9290957 0.52499998
-5.8093305 -2.9266167 0.52499998
-5.7899494 -2.925 0.52956408
-4.5859461 -1.5017381 0.52152383
-4.5913706 -1.4979572 0.52908552
-4.6705461 -1.4761335 0.52443326
-4.5728879 -1.4521616 0.52288795
-4.5754452 -1.4192163 0.52544504
-4.5983458 -1.37831 0.5216921
-4.6750002 -1.3217095 0.52741027
