# .PCD v0.7 - Point Cloud Data file format
VERSION 0.7
FIELDS x y z
SIZE 4 4 4
TYPE F F F
COUNT 1 1 1
WIDTH 1469
HEIGHT 1
VIEWPOINT 0 0 0 1 0 0 0
POINTS 1469
DATA ascii
-22.977642 0.028799295 0.5256592
1.8665342 0.041987181 0.52732515
2.0762577 0.055964947 0.52149725
-24.897057 0.082336903 0.52628577
1.9751387 0.11937785 0.52391386
-25.309093 0.15902042 0.52581072
-24.06424 0.18046653 0.52924919
-20.738834 0.18562239 0.52983755
2.0278912 0.21728837 0.52428627
-22.849764 0.23806846 0.52667546
-21.179173 0.26994485 0.52971417
-23.386211 0.27416825 0.5278492
1.806613 0.28509104 0.52129698
-11.773291 0.29239988 0.52570301
-21.617514 0.35430723 0.52912956
-24.3353 0.37441188 0.52139866
-23.418068 0.37468356 0.52122861
-22.042324 0.3746857 0.52122724
-11.953544 0.37414271 0.52156711
-11.49496 0.37441355 0.52139771
-11.036379 0.37441224 0.52139843
-24.414913 0.40642262 0.52066517
-11.930453 0.40713382 0.52651131
-22.583862 0.4589994 0.52728605
-22.055126 0.45779335 0.52657485
1.6944551 0.46172285 0.52572632
-22.151846 0.48411131 0.5281167
-11.460454 0.49315357 0.52592129
-21.616295 0.50060117 0.52773547
-21.083683 0.51692879 0.5280211
-10.992678 0.57856202 0.52556902
2.0278912 0.57928741 0.52428627
-15.786156 0.58084631 0.52367193
-24.236567 0.59020603 0.52051795
-11.436707 0.62991071 0.52420998
-16.403433 0.66089892 0.52597439
-14.964893 0.68035579 0.52097631
-15.39068 0.6920836 0.52524346
-9.94557 0.71154833 0.52442455
-6.4208555 0.75319147 0.52066779
-16.202473 0.76781178 0.52503514
-15.178185 0.76692462 0.52508175
-11.773291 0.76367629 0.52570301
-5.3444881 0.76767135 0.52164805
-7.3202519 0.77333283 0.52135062
-20.674309 0.78744465 0.52935952
-21.552414 0.80224764 0.52424014
-4.6977143 0.80667341 0.521236
-24.20653 0.85029238 0.52818149
-21.111553 0.86999947 0.5290094
-4.5170217 0.87436032 0.52999103
-4.4945793 0.87801409 0.52866691
-24.303902 0.91707373 0.52937222
-9.1429138 0.91690814 0.52347612
-5.4948893 0.91005635 0.52549601
-21.546825 0.95218533 0.52865797
-22.024376 0.98601747 0.52500629
-21.603216 0.99407768 0.5274477
-21.07135 1.0091753 0.52773678
-9.5783358 1.0126175 0.52128446
-20.54179 1.0242746 0.5273577
-11.930109 1.0209852 0.52487516
-16.664831 1.0384192 0.52534217
-8.6081228 1.0315412 0.52661282
-14.64459 1.068565 0.52542043
-11.463657 1.104941 0.52429229
-16.90661 1.1278589 0.52541178
-14.752657 1.1263794 0.52629465
-16.397373 1.1423464 0.52536976
-16.1285 1.1595507 0.52986449
-15.890455 1.1568007 0.52500331
-24.673109 1.1656344 0.5292511
-21.504303 1.1712524 0.52943695
-10.999392 1.1883031 0.52394605
-14.276637 1.2108325 0.52546847
-22.021255 1.2203321 0.52859163
-12.075047 1.2393695 0.52096057
-11.773291 1.2349528 0.52570301
-7.7046103 1.2399151 0.5250355
-7.2325115 1.2399151 0.52503729
-6.7604041 1.2399151 0.52503979
-6.2883015 1.2399151 0.5250349
-5.8161988 1.2399151 0.5250386
-5.3440948 1.2399151 0.52503908
-4.3998861 1.2399151 0.52504003
-3.6950874 1.2380644 0.52839375
-3.4556847 1.2399151 0.52503717
-2.9835768 1.2399151 0.52503955
-2.5114737 1.2399151 0.52503479
-2.0393715 1.2399151 0.5250386
-1.5672674 1.2399151 0.52503884
-1.0951653 1.2399151 0.52503407
-16.579494 1.2419071 0.52951092
-3.9273529 1.2400668 0.5280906
-21.004135 1.2566565 0.52907002
-1.5264492 1.2510462 0.52523386
-22.305447 1.2604191 0.5275805
-15.875702 1.2735295 0.52193809
-16.231136 1.2875531 0.524014
-9.0779839 1.3025365 0.52753162
-3.162981 1.3065803 0.5210371
-20.506321 1.3416589 0.5287044
-9.2753706 1.3449895 0.52071238
-2.3068838 1.346487 0.52907765
-1.3880978 1.3483026 0.52143621
-11.444355 1.3599756 0.52588487
0.6417532 1.3610811 0.52789712
-6.3892579 1.412658 0.52792674
-1.255497 1.4264052 0.52450848
-0.596838 1.4203115 0.52163267
1.8459816 1.4275558 0.52122116
-8.9766779 1.4462533 0.52366161
-16.094566 1.4559658 0.52653766
-3.5536003 1.4657756 0.5292232
-1.8302116 1.4619807 0.52371681
-14.742651 1.5118289 0.52952403
-16.775238 1.5308557 0.5208385
-9.5791454 1.5436724 0.52567124
-4.4284601 1.5419468 0.52234936
-15.896559 1.5581449 0.52238107
-15.369543 1.5583298 0.52107239
-14.001075 1.5815785 0.5266968
-16.376369 1.5934808 0.52477849
-15.196417 1.5927253 0.52986246
-16.900124 1.6091485 0.5254584
-13.918855 1.6033152 0.52333134
-16.391563 1.6224635 0.52541929
-11.929776 1.6256243 0.52326536
-15.885321 1.6357479 0.52505326
-9.668601 1.6361718 0.52942181
-15.381613 1.6489351 0.52501726
-14.880191 1.6620932 0.52465445
-15.648251 1.6740668 0.5292787
-11.244708 1.686987 0.52440143
-11.773291 1.7062293 0.52570301
-11.466858 1.7073654 0.52292192
-25.268837 1.7123129 0.52179873
-12.075081 1.7114741 0.52092844
-0.62305927 1.7120185 0.52503979
-0.15095615 1.7120185 0.52503502
0.080254555 1.7228336 0.52458274
-12.131681 1.7306613 0.52700645
-16.097988 1.7546368 0.5291571
-25.538942 1.7620213 0.52497172
0.60295963 1.8251681 0.52938414
-16.545704 1.8348446 0.52903622
-14.007885 1.9057915 0.52744913
0.83494854 1.9494293 0.52274442
-0.25606728 2.0110071 0.52442384
-22.848495 2.1510105 0.52787936
-24.192921 2.2000456 0.52904224
-23.530388 2.2354703 0.5286994
-21.852287 2.3158488 0.526685
-23.250818 2.393966 0.52568865
-21.109066 2.4056973 0.52959722
-20.865547 2.4787488 0.5259738
-20.929295 2.4905252 0.52642226
-21.93565 2.5514317 0.52328467
-25.676369 2.5743165 0.5200547
-25.187361 2.5829213 0.52087033
-16.570839 2.6056604 0.5235222
-23.673054 2.6105881 0.52818584
-21.289253 2.6288528 0.52195859
-24.781246 2.6592183 0.52280217
-25.241888 2.6830852 0.52854872
-23.904589 2.7078958 0.52442372
-20.650463 2.7053082 0.5209353
-24.811266 2.7161894 0.52902329
-14.736246 2.7580292 0.52994406
-15.625362 2.7649579 0.5221442
-15.149666 2.7646873 0.52823418
-17.36458 2.7974708 0.52868998
-22.26992 2.8365574 0.52610266
-16.865726 2.8983092 0.52985656
-23.217335 2.9162576 0.52500772
-21.776819 2.9169641 0.52527738
-14.688686 2.9222207 0.52146888
-16.106567 2.9352951 0.52806985
-16.010887 2.9679444 0.52073991
-9.6422691 2.9679835 0.52209949
-20.78878 3.0222127 0.52874422
-14.198682 3.027266 0.52877331
-20.323957 3.0371451 0.5247252
-9.347229 3.0387001 0.5243001
-16.237959 3.0411677 0.5249877
-15.368047 3.0749488 0.52452028
-13.760418 3.0782557 0.52057016
-24.170538 3.1146226 0.52634698
-10.118699 3.1574168 0.52799082
-20.850731 3.184938 0.52562076
-23.67218 3.1945162 0.52552056
-16.535938 3.1942482 0.52193129
-25.202028 3.2122266 0.5278492
-9.1655807 3.2389963 0.52530485
-14.009275 3.2472756 0.52244484
-21.274147 3.2595315 0.52551132
-8.3446198 3.2518206 0.52115119
-23.176483 3.2734432 0.52540648
-16.065752 3.272049 0.52136636
-15.298457 3.2731433 0.52961802
-21.945202 3.2908697 0.52023506
-15.883142 3.2977304 0.52347052
-21.695747 3.3330588 0.52628738
-15.597767 3.3493071 0.52103078
1.5192213 3.3670256 0.5220542
-22.786743 3.3882651 0.52217007
-16.858662 3.3933983 0.5294565
-16.100565 3.4257994 0.52767587
-21.010326 3.4507685 0.52664661
-20.484564 3.459795 0.52660596
0.060624123 3.4552202 0.52888012
-13.437879 3.5753238 0.52903044
-16.249334 3.5815439 0.52557135
-16.038414 3.5983469 0.52226424
-16.67458 3.6004324 0.52503777
1.3232555 3.6289606 0.52810764
-10.305166 3.6344874 0.52489007
1.3016949 3.6371491 0.52316618
-13.530697 3.6475403 0.52404976
-12.571963 3.6449654 0.52441525
-9.7721291 3.6413391 0.52166772
-2.4402561 3.6405113 0.52878439
-14.10812 3.6593602 0.52267694
-12.524868 3.6608398 0.52364999
-11.381975 3.6607575 0.52388358
0.44396877 3.6638849 0.52490783
-15.298469 3.6988688 0.5285449
-10.386553 3.7115977 0.52624607
1.2846889 3.7371507 0.52614403
-12.514318 3.7418211 0.52241135
-8.4636202 3.7574663 0.52210319
-13.191015 3.7886076 0.52234149
-12.664107 3.8068182 0.52251768
-12.381361 3.8365293 0.52130103
-11.525764 3.8363438 0.5210737
-4.5228539 3.8416967 0.52260327
-2.9659319 3.8758039 0.52001238
-4.1834393 3.8976617 0.52425277
0.45646381 3.9309931 0.52873135
-3.0244122 3.9420874 0.52977061
-0.090278625 3.9542224 0.52563882
1.4472351 3.9962234 0.52520657
0.96635628 4.0069237 0.52271223
-24.96487 -6.2099915 0.53275001
-24.59989 -6.2097259 0.5330379
-23.685337 -6.1097498 0.53346479
-20.776104 -6.0295763 0.53607631
-24.238819 -6.0092249 0.53915584
-23.675215 -6.0052714 0.53861022
-16.494345 -6.0080538 0.53095531
-11.674052 -5.9486227 0.53034669
-22.769142 -5.9343386 0.53497225
-15.512888 -5.882658 0.53796637
-15.321946 -5.8876061 0.53340518
-9.7870159 -5.8745823 0.53267276
-14.727863 -5.8619823 0.53020138
-10.287846 -5.8360167 0.53296256
-24.875515 -5.7994666 0.53094399
-9.4160795 -5.7427554 0.53996122
-14.492155 -5.7344494 0.53212625
-12.458282 -5.7293673 0.53125858
-23.059338 -5.7167978 0.53129148
-16.557522 -5.7146578 0.53159499
-21.194778 -5.7007923 0.53533375
-8.0777311 -5.6890292 0.53703845
-13.525475 -5.6731868 0.53848088
-23.450912 -5.6670599 0.53266573
-23.016655 -5.6567221 0.53211617
-7.2395668 -5.6488338 0.53421903
-25.632299 -5.6303406 0.5348227
-22.142225 -5.6357775 0.53252006
-15.502042 -5.6346264 0.53833634
-14.987144 -5.6350102 0.53879124
-21.702183 -5.6253276 0.5316627
-21.260122 -5.6147785 0.53140593
-20.826923 -5.6079388 0.5308311
-8.5808783 -5.6073775 0.53835529
-21.057932 -5.5931339 0.53167558
-14.845078 -5.5933714 0.53555399
-24.115746 -5.5812864 0.5385778
-16.879969 -5.5866089 0.53634477
-9.9863129 -5.5852203 0.53166676
-21.361834 -5.5749564 0.53556061
-4.7416973 -5.533617 0.5338918
-2.3715029 -5.5318928 0.53369737
-15.48063 -5.5293975 0.53914064
-14.035205 -5.5138545 0.53680778
-0.33527184 -5.4948015 0.5363034
-23.579708 -5.4890442 0.53761482
-22.727348 -5.4846597 0.5381881
-25.487185 -5.4678526 0.53390765
-5.6130838 -5.45714 0.53156245
-21.7174 -5.429183 0.53107834
-15.971782 -5.4235053 0.53873104
-8.722188 -5.4244986 0.53855461
-21.586315 -5.4049397 0.53070772
-16.284843 -5.4064012 0.53992546
-22.477348 -5.3922744 0.53195232
-9.4687729 -5.3917112 0.53041881
-24.441116 -5.3816986 0.536201
-25.862185 -5.3748393 0.53906488
-6.2146349 -5.3702917 0.53463244
-4.2175322 -5.3715816 0.53607154
-22.769857 -5.349916 0.53404945
-14.74866 -5.3471718 0.53752041
-21.359474 -5.3301477 0.53341651
-15.591364 -5.3266726 0.53135979
-9.718276 -5.3257027 0.53998148
-22.719788 -5.3163013 0.5357213
-16.460543 -5.317873 0.5380742
0.78693199 -5.3090096 0.53222787
-8.9604282 -5.2922707 0.5388037
-7.1939049 -5.2850056 0.53210163
-16.577242 -5.276618 0.53494525
-13.691419 -5.2585659 0.53293735
1.0605631 -5.2548895 0.53793907
-3.0736313 -5.247098 0.53310072
-3.4637165 -5.2238317 0.53368175
-2.5700474 -5.2238317 0.53368175
-1.6763239 -5.2235775 0.53384709
-1.2295485 -5.2238321 0.53368163
-0.78265476 -5.223577 0.53384721
0.55778217 -5.2238321 0.53368163
1.0046167 -5.2238331 0.53368092
2.3451967 -5.2235775 0.53384697
-5.4364586 -5.2026896 0.53803253
-1.8838501 -5.2040868 0.53769839
-1.5344038 -5.1801782 0.53546357
-4.062871 -5.1740527 0.53405607
-14.472461 -5.1603947 0.53978205
-14.935413 -5.1460757 0.53160369
-8.3859158 -5.1324725 0.53950453
-5.1641955 -5.1389585 0.5393362
-16.317329 -5.1274676 0.53724062
-4.6801219 -5.1223583 0.53887081
-15.517893 -5.1173668 0.53909051
-4.2005625 -5.1059127 0.53840828
-8.5735254 -5.0806637 0.53464127
-3.7254491 -5.0896201 0.53795528
0.45684719 -5.0803757 0.53641325
-3.2546072 -5.0734587 0.53723383
-7.4542441 -5.0612006 0.53408051
-2.7883253 -5.0574837 0.53705287
-6.6391487 -5.0463843 0.53711307
-2.3261862 -5.041636 0.53661108
0.9102602 -5.0386877 0.53028679
-1.8682623 -5.0259323 0.5361712
-1.4143877 -5.0103531 0.53547406
-25.061056 -5.0085039 0.53670788
-13.445648 -5.0064268 0.53907681
0.36038876 -4.9494772 0.53351927
1.2242336 -4.9198537 0.53269386
-7.3691354 -4.9034519 0.53623343
-3.4240675 -4.9097233 0.53719151
-3.7642555 -4.887466 0.53723109
-6.2855186 -4.8448572 0.53471589
-5.5884681 -4.8458176 0.53496838
-4.0104351 -4.8321142 0.53218412
-3.1179905 -4.7945423 0.53329539
0.23491383 -4.7762766 0.5320667
-4.0837908 -4.7609749 0.53484821
-3.043293 -4.761343 0.53872299
-0.57875824 -4.7269807 0.53409255
-25.112514 -4.7142639 0.53877401
-25.033752 -4.7166386 0.53961992
-1.0535679 -4.6873579 0.53259349
-0.66724777 -4.6827712 0.53107238
-0.30333138 -4.6432381 0.53166175
2.2212753 -4.6421809 0.53982234
0.055187225 -4.6373148 0.53250837
1.5253839 -4.5471854 0.53339171
1.8012934 -4.507637 0.5396111
1.6098442 -4.4939122 0.53869534
-25.547192 -4.4600973 0.53516388
2.443347 -4.4665694 0.53316426
2.4620762 -4.4552073 0.53491557
-23.311859 -4.4054179 0.53295231
-22.818974 -4.3930326 0.53373784
-21.983936 -4.3487463 0.53483415
-23.46315 -4.3320475 0.53046036
-20.80328 -4.2791791 0.53539193
2.304368 -4.2791781 0.53539133
-21.021969 -4.2003365 0.53476888
-15.447692 -4.1907048 0.53945708
-23.164093 -4.0891814 0.53537464
-15.581762 -4.0835252 0.53696203
-14.938086 -4.0878859 0.53904915
-24.385984 -4.0604382 0.53091681
-16.19035 -4.0690193 0.53197718
-14.589239 -4.0484867 0.53388917
-20.649258 -4.0115228 0.53732634
-14.430992 -3.9855704 0.53863955
-24.301104 -3.9785566 0.53791213
-21.126719 -3.9706793 0.53320789
-24.30794 -3.9689162 0.53816605
-21.054977 -3.9407303 0.53312838
-17.329556 -3.9480183 0.53405285
-25.777176 -3.9314106 0.5362134
-16.719168 -3.9230404 0.5381968
-24.567909 -3.9169672 0.53729475
-21.902908 -3.916465 0.53563595
-15.540441 -3.9185324 0.53349745
-7.4561071 -3.9130075 0.53351283
-13.926392 -3.8837605 0.53823435
-23.840128 -3.8729115 0.53531861
-21.450296 -3.8763442 0.53972781
-15.249614 -3.8788922 0.53147012
-13.938662 -3.8756027 0.53557533
-24.280186 -3.8386595 0.53461516
-6.3301258 -3.8358779 0.53197759
-4.9525156 -3.8231571 0.53312421
-7.6747503 -3.8023007 0.53550977
-3.7479248 -3.8026726 0.53532994
-4.6801219 -3.7987385 0.53887081
-13.424207 -3.7821965 0.53758049
-16.865484 -3.7767158 0.53417814
1.8948593 -3.7784131 0.5319674
-2.7883253 -3.7581921 0.53705287
-20.659584 -3.7468653 0.53516769
-2.3241358 -3.7480645 0.53157759
-21.254183 -3.7370634 0.53607762
-25.181564 -3.7173691 0.53863084
-23.965916 -3.7022285 0.53425384
-22.56498 -3.7008059 0.53533888
-1.3337584 -3.7033734 0.53211403
-0.22927666 -3.6954093 0.5376277
-7.3986983 -3.6769598 0.53224862
-3.881906 -3.671248 0.53550482
0.39375019 -3.6719794 0.5331161
2.1268215 -3.6663313 0.5385077
-16.284241 -3.6526513 0.53370142
-0.28348446 -3.6317532 0.53174734
-23.623747 -3.6237612 0.53056252
-23.775875 -3.6192219 0.53198504
-16.745102 -3.610116 0.5332762
-24.416563 -3.6090181 0.53771681
-23.904461 -3.602628 0.53027153
-15.927088 -3.6009107 0.53851628
-8.1773376 -3.6054878 0.53438646
-4.5378995 -3.5856612 0.53457355
0.73851299 -3.5870397 0.5377332
-3.5208397 -3.5731149 0.53314877
-14.589556 -3.5573425 0.53407633
-3.5913906 -3.5583138 0.53873402
-22.315952 -3.5486603 0.53431225
-2.2920895 -3.5379181 0.53056872
0.1333313 -3.5362501 0.53926015
-1.0547285 -3.5249448 0.53613305
0.16278267 -3.5231082 0.53467405
-24.875515 -3.5048699 0.53094399
-15.419075 -3.4998612 0.53786051
-2.2890682 -3.4926088 0.53807735
-23.236483 -3.4819489 0.53528452
1.0315018 -3.4422758 0.53329873
-7.9274163 -3.422142 0.53080571
-7.8864374 -3.4121325 0.5339278
-14.913561 -3.3993082 0.53720701
-23.262737 -3.3629737 0.53379321
-8.0290947 -3.365984 0.53601062
-22.063534 -3.3541327 0.53425008
-0.27456856 -3.3551793 0.53952622
-17.09798 -3.3380485 0.53533077
-6.8441958 -3.3201973 0.5318532
-21.966496 -3.3128431 0.53530312
-5.9722047 -3.3167925 0.53854686
0.16471767 -3.3026383 0.5365622
1.1335363 -3.3001676 0.53512681
-16.800167 -3.2955339 0.53243482
-16.315504 -3.2955303 0.53243256
-15.830843 -3.2955329 0.53243411
-15.346199 -3.2958403 0.53261256
-14.861517 -3.2955317 0.53243339
-13.407539 -3.2958431 0.53261423
-8.0762424 -3.295532 0.53243351
-7.5913396 -3.2983124 0.53404891
-2.2602396 -3.2958405 0.53261268
0.64882851 -3.2878742 0.5372262
-7.551394 -3.265595 0.53317738
-13.292467 -3.2402568 0.53853208
-7.9826975 -3.2489536 0.53110349
0.56790543 -3.2430279 0.53186107
0.72962666 -3.2434831 0.53506523
-22.973629 -3.2369628 0.53375894
-6.2374897 -3.2311273 0.53120244
-15.846294 -3.2272902 0.53932267
0.51126766 -3.2212815 0.53648829
-1.9905653 -3.2162824 0.53816354
-22.169836 -3.172312 0.53715849
-16.031973 -3.1721289 0.53742427
1.6070518 -3.1612182 0.53697407
-20.715256 -3.1462348 0.53532147
-16.949966 -3.1462946 0.53300834
-21.504295 -3.1217611 0.53605509
-16.909828 -3.1167297 0.53773677
-6.9971743 -3.1169803 0.53798908
-23.44203 -3.1069107 0.53546453
-13.411992 -3.1013346 0.53601265
-15.581762 -3.0871973 0.53696203
-14.589556 -3.0661836 0.53407633
-16.556984 -3.0518103 0.53370655
-16.17819 -3.0524268 0.53140903
-13.624559 -3.0457435 0.53108352
-7.3923483 -3.0331626 0.5386095
-16.968567 -3.0237813 0.53781056
-5.4293227 -3.0291469 0.5375762
-25.222082 -3.0143354 0.53513873
-16.40107 -3.0174336 0.53733492
-15.781216 -3.0166235 0.53849268
-7.5058584 -3.0179296 0.53783506
1.5539494 -2.9754434 0.53686035
-15.969414 -2.9312768 0.53326839
-15.894642 -2.9181299 0.53643799
-9.0133953 -2.8910787 0.53281772
-2.0034761 -2.8882842 0.53262711
-13.536319 -2.8767691 0.53296024
-5.6643968 -2.8782711 0.53141648
-4.6658068 -2.8664865 0.53259301
-24.766045 -2.8570924 0.53249621
-14.455817 -2.8541515 0.5321027
-4.9961052 -2.8271964 0.53226107
-1.1411371 -2.7678463 0.5369904
1.3260336 -2.7439926 0.53771496
-13.291252 -2.7221832 0.53265691
-13.878938 -2.7010355 0.53055841
-8.5840931 -2.7010355 0.53055841
-8.102746 -2.7010319 0.53056055
-7.6213951 -2.7010341 0.53055912
-7.9826808 -2.6811056 0.53682911
-6.8019524 -2.6803529 0.53163946
-24.946808 -2.6712728 0.53336382
0.60359097 -2.6549387 0.53936905
-24.826313 -2.6474898 0.53388882
0.39903736 -2.5952461 0.53281212
-25.242981 -2.5806727 0.53969622
-25.085775 -2.5734148 0.53817689
-6.1122918 -2.5768528 0.53505492
0.62910652 -2.5582397 0.5398137
-2.983284 -2.5482757 0.53855139
-2.7889872 -2.4589286 0.53865361
-1.8682623 -2.4510124 0.5361712
0.093734741 -2.4568248 0.53712708
-3.2293072 -2.4432745 0.53279591
-1.4143877 -2.4471173 0.53547406
-0.51897812 -2.4394374 0.53435516
0.36038876 -2.4318986 0.53351927
1.650629 -2.42083 0.53177834
-0.12353325 -2.3998165 0.53177732
-0.44612598 -2.3568769 0.53044629
1.6065521 -2.3573465 0.5326581
-25.795124 -2.3035431 0.53864956
-21.840582 -2.3010249 0.53409374
-10.798162 -2.3067727 0.53952473
-22.186604 -2.2527993 0.53557265
-12.476817 -2.2411604 0.53753126
-22.213551 -2.2077837 0.5344699
-11.981295 -2.1739779 0.53779507
-12.578957 -2.16359 0.53604078
-11.456264 -2.1606383 0.53634226
-20.930691 -2.1438627 0.53090537
-11.931772 -2.1442356 0.5328275
-11.488419 -2.1072974 0.53776169
-25.501648 -2.0733986 0.53977931
-10.902723 -2.0578856 0.53451115
-25.665827 -2.0055187 0.53959489
1.5548115 -1.981438 0.53740168
-24.875515 -1.9751387 0.53094399
-22.806915 -1.9459343 0.53176939
-11.120895 -1.928848 0.53587341
-22.27183 -1.9031169 0.5369066
-23.251755 -1.8551352 0.53187346
-21.731174 -1.8345833 0.53657019
-24.343395 -1.8030782 0.53606176
-15.630785 -1.8088397 0.53036922
-11.294506 -1.7976289 0.53808248
-13.388085 -1.7714243 0.53271037
-23.69453 -1.764529 0.53174406
-21.193272 -1.7662607 0.53653765
1.613163 -1.7612375 0.53709471
-25.587791 -1.7545207 0.53933722
-23.338751 -1.7568979 0.53005028
-12.01571 -1.7554705 0.53651077
-25.457224 -1.7176725 0.53353018
-21.13715 -1.7187572 0.53758335
-12.474794 -1.709018 0.53752458
-9.935708 -1.6932298 0.53371131
-11.006224 -1.6803482 0.53500283
-11.981296 -1.6434852 0.5377878
-8.1276922 -1.6472337 0.53754383
-24.289608 -1.5927058 0.53636658
-15.581762 -1.5927058 0.53696203
-14.589556 -1.5927058 0.53407633
-13.624559 -1.5927058 0.53108352
-10.902723 -1.5927058 0.53451115
-7.8818574 -1.5927058 0.53928339
-7.1543131 -1.5927058 0.53295171
-21.388203 -1.5850797 0.53213096
-16.423273 -1.584066 0.53736895
-15.831511 -1.5855879 0.53311396
-11.491671 -1.5876069 0.535106
-15.763884 -1.5415609 0.53499305
-16.159931 -1.5376163 0.53044343
-7.6875815 -1.5315541 0.53816026
-25.169533 -1.5271955 0.53110826
-3.5197883 -1.5151868 0.53758585
-8.8164043 -1.5043451 0.53066814
-2.9687462 -1.5063643 0.53581673
-15.335784 -1.4920017 0.53272915
-11.931408 -1.4913685 0.5310896
2.1306496 -1.4956994 0.53158367
-23.313963 -1.4872655 0.53634846
-7.4364519 -1.4629185 0.53065169
-4.8183594 -1.4644568 0.5347501
-1.2696104 -1.4271204 0.53476882
-14.423215 -1.4142332 0.53126585
-25.445293 -1.4055772 0.53052741
-22.281776 -1.4049968 0.53162944
-11.11821 -1.4096786 0.53600758
-5.2790747 -1.4011163 0.53534949
-5.2350097 -1.4042228 0.53702879
-14.842429 -1.3988653 0.53234839
-24.156281 -1.3719597 0.53596258
-14.058891 -1.3675989 0.53481197
-2.0627699 -1.3328846 0.53290391
-10.787931 -1.3285546 0.53215241
1.758955 -1.3254511 0.53441882
2.1314344 -1.3219335 0.53828716
-22.725471 -1.3154688 0.53126675
-10.971818 -1.3069553 0.53010297
2.113719 -1.2737063 0.5333823
-1.1507854 -1.2577813 0.53860521
-0.068626404 -1.2554672 0.5355587
0.98186874 -1.2529767 0.53226471
-23.167126 -1.2263519 0.53090441
-24.877575 -1.2102952 0.53268349
-9.474082 -1.2199427 0.53971195
-4.4084091 -1.2011473 0.53391767
-7.1543131 -1.1579454 0.53295171
2.4878349 -1.1574824 0.53416634
-16.613005 -1.134359 0.5321002
-12.015396 -1.133818 0.5370267
-10.902723 -1.1275259 0.53451115
-24.355272 -1.1110348 0.53177857
-14.589556 -1.1015466 0.53407633
-15.581762 -1.094542 0.53696203
-14.067923 -1.0720544 0.53291911
-0.27314377 -1.0689921 0.53950453
-11.013834 -1.0341549 0.53446162
-23.285809 -1.0203454 0.5360775
-11.767144 -1.0111899 0.53521544
-6.7250032 -1.0113358 0.53244388
-24.828293 -1.0072165 0.53179646
-15.146187 -1.000613 0.53452098
-22.453754 -0.9800415 0.53022194
-21.317478 -0.9574967 0.53139073
-7.5297079 -0.95197207 0.53508258
-11.495566 -0.94342202 0.53432238
-6.6807375 -0.90201259 0.53330803
-11.116177 -0.88591492 0.53673995
-7.7387085 -0.86322349 0.53029346
-7.2713332 -0.85356379 0.53623152
-21.539534 -0.84834838 0.53858185
-25.118988 -0.83306384 0.53752995
-10.78731 -0.83258855 0.5360688
1.9059296 -0.82936651 0.53774792
-22.186443 -0.80724537 0.5335356
0.85978508 -0.80520964 0.53382087
-2.9416304 -0.78079641 0.53427958
-17.483995 -0.76204205 0.53722954
-4.8459759 -0.75584388 0.53496504
-7.1543131 -0.723185 0.53295171
-6.1075187 -0.72862613 0.53974259
-15.964738 -0.69779396 0.53513026
-6.6799307 -0.69527113 0.53462386
-1.5790796 -0.68888217 0.53442472
-10.902723 -0.66234607 0.53451115
-16.658981 -0.6467697 0.53075033
-13.842157 -0.64839768 0.53113914
-6.7524872 -0.64370453 0.53848875
-4.871232 -0.64839768 0.53114092
-0.091715813 -0.64711505 0.53564095
-25.155449 -0.63179421 0.53556144
-15.275303 -0.63200593 0.53319645
-12.0155 -0.63942802 0.53685141
-1.0381527 -0.63031602 0.53840983
-13.624559 -0.62401426 0.53108352
-2.1453218 -0.62353349 0.53923178
-14.596212 -0.61025977 0.53796339
-13.612676 -0.61407357 0.53073597
-16.683823 -0.59197527 0.53216022
0.4230547 -0.59993935 0.53376508
-3.4157286 -0.5691365 0.53378844
-2.2656412 -0.56229818 0.53702021
-14.77887 -0.55329239 0.53490973
-11.464189 -0.5505501 0.53678763
-0.27314377 -0.54527867 0.53950453
-17.089033 -0.53246439 0.53612107
-15.937738 -0.53965175 0.53625077
-5.4425507 -0.52963364 0.53885347
-14.167092 -0.51758772 0.53488296
-0.98053265 -0.51985109 0.53411245
-8.0768223 -0.48796678 0.53842914
-4.9151616 -0.48583341 0.53436708
-2.7909746 -0.46126223 0.53496635
-25.364544 -0.40135741 0.53155267
-6.4537425 -0.40093839 0.53428662
-5.9199095 -0.40211916 0.53227121
-0.019143105 -0.39162707 0.53434873
-2.1773787 -0.34318942 0.53966308
1.3555803 -0.33758193 0.5329138
2.0360632 -0.32440042 0.53723717
-8.0334358 -0.31358004 0.53443283
-5.8152022 -0.31646168 0.53908074
-5.3128834 -0.31530321 0.53742576
-1.436656 -0.30899656 0.53405476
-7.1614056 -0.28823876 0.53531575
-6.1172223 -0.28852975 0.53922641
1.1620064 -0.28631091 0.53790677
0.93008804 -0.2656219 0.5339458
-5.3573518 -0.25692594 0.53933012
-4.5067158 -0.25784564 0.5396626
-3.6778097 -0.24344552 0.53895783
-5.7846847 -0.22090876 0.53789139
-0.81338787 -0.21120191 0.53259325
-7.2044592 -0.20677137 0.53974485
-10.902723 -0.1971662 0.53451115
-8.0274811 -0.19438303 0.53182113
1.7942257 -0.17208332 0.53420919
-12.015435 -0.14757621 0.53696024
-7.2497725 -0.14955449 0.53077269
1.6902199 -0.093780041 0.53799772
-11.465919 -0.061738253 0.53634357
0.49134731 -0.055966854 0.53389072
-25.444479 -0.010213375 0.53179836
-23.37034 0.0031480789 0.53483653
-23.9636 0.032476544 0.53869551
1.7862549 0.10831761 0.5388689
-22.492088 0.11617327 0.53705454
-22.050377 0.16046607 0.53049493
-25.452354 0.22489858 0.53421545
-10.902723 0.26801372 0.53451115
2.7339172 0.29134542 0.53665668
1.8811235 0.30364668 0.53210306
-12.015712 0.34146583 0.53651416
2.0193768 0.37513769 0.53257036
-11.467314 0.42467737 0.53644937
-17.351706 0.46903729 0.53005087
-11.953542 0.46826005 0.5337038
-24.353573 0.51124001 0.53841019
-25.392796 0.52693057 0.53193164
-21.65473 0.53942442 0.53095794
-16.158655 0.54856759 0.53828865
-25.047009 0.5514679 0.53830194
-13.866071 0.56025052 0.53567827
-20.682068 0.57359004 0.53007317
-16.746595 0.59806252 0.53731632
-16.639133 0.59547806 0.53742123
-25.727528 0.60890019 0.53123176
-16.613739 0.63968891 0.53045756
-24.556129 0.64935565 0.53265232
2.399251 0.69570112 0.53840941
-10.902723 0.73319352 0.53451115
-14.153166 0.74880171 0.53104657
-3.4419403 0.74723762 0.53201264
-25.87043 0.75674915 0.53640556
-25.886604 0.79164231 0.53516102
2.302515 0.79486179 0.53151369
-6.3225155 0.80575395 0.5316031
-1.3163528 0.80523753 0.5301708
-17.416168 0.81863129 0.53780794
-25.883713 0.82173395 0.53150761
-13.624559 0.82902324 0.53108352
-12.015816 0.82800984 0.53634536
2.2304077 0.82781529 0.53158998
1.0731096 0.83143187 0.53398776
-9.1478653 0.84704566 0.53883165
-3.3198099 0.84019077 0.53976738
-7.6319814 0.85338187 0.53339148
-4.3043056 0.85145903 0.53042662
-14.596212 0.8634094 0.53796339
-7.9872274 0.86510086 0.53448671
-5.2914004 0.86854458 0.53941083
2.4522896 0.8786447 0.53164887
2.0730448 0.88081396 0.53163385
-8.1841736 0.89840114 0.53921801
-23.019424 0.91195416 0.53127378
-14.763157 0.91042358 0.53070664
-15.425119 0.92825532 0.53540301
-14.5156 0.93962097 0.53192437
-8.746562 0.94337118 0.53276891
-8.194335 0.95224983 0.53246433
-7.7201943 0.95482337 0.53918535
-1.5216131 0.95079088 0.53322458
-4.0351744 1.0003306 0.53399789
-16.065378 1.0183105 0.53832316
-7.25846 1.0110947 0.53943408
-4.2947493 1.0127282 0.53438151
-3.1701469 1.0187975 0.53997099
-15.367223 1.0356398 0.53187823
-16.760824 1.0545995 0.53778267
-6.7990613 1.0669585 0.53939903
-22.007057 1.0850124 0.53028923
-25.72003 1.0983613 0.53304219
-5.8425241 1.1185141 0.53430575
-6.3418794 1.1226758 0.53964579
-17.010399 1.1349759 0.53201318
-3.2686319 1.1360328 0.53440529
-15.335847 1.1423901 0.53988433
-5.886992 1.1779896 0.53960824
-24.970514 1.193638 0.53177994
-10.902723 1.1983734 0.53451115
-14.669933 1.207094 0.53407419
-7.4323783 1.2277949 0.53491288
-4.8706465 1.2404544 0.53588879
-4.7923622 1.242933 0.53455365
0.32267857 1.2402689 0.53215706
-16.611818 1.2541518 0.5305655
-2.2562885 1.2576816 0.53442883
0.18196583 1.271862 0.5343082
-20.824594 1.2849877 0.53068113
-14.980712 1.3076243 0.53456682
-13.624254 1.3133513 0.53090423
-9.034461 1.3321092 0.53167284
-8.5479679 1.3319075 0.53197062
-6.3568935 1.3526938 0.53470355
-21.232355 1.3644338 0.53920078
-3.7563739 1.3654506 0.53457636
-1.2573681 1.3775039 0.53423381
-6.2006931 1.38291 0.53124726
-16.889286 1.3941959 0.53776896
-7.5235844 1.4116287 0.53967953
-3.0629091 1.4350979 0.5357374
-24.604704 1.448657 0.5317874
-17.372519 1.4400837 0.53735232
-7.1614056 1.4510506 0.53531575
-7.9636235 1.4665375 0.53550798
-5.2962451 1.4758723 0.53449994
-7.0953131 1.4862614 0.53177798
-0.27168751 1.4957333 0.53403556
-15.226931 1.5037489 0.53895628
-4.6706409 1.5383525 0.53017521
-17.030539 1.5873098 0.53234982
-16.885822 1.6376882 0.5381273
-5.0867934 1.6429977 0.53405446
-15.776063 1.6533723 0.53336751
-0.65523243 1.7208242 0.53417873
-15.350728 1.7309126 0.53208911
0.79440117 1.7491535 0.53259039
-9.8500042 1.7537061 0.53457499
-9.5222626 1.7671735 0.53833771
0.72286034 1.7634269 0.53324914
-13.624559 1.7977148 0.53108352
0.96418953 1.8132761 0.53415281
-16.879627 1.9042155 0.53041577
-9.7880392 2.0538054 0.53388071
-9.5799513 2.0698748 0.53001952
-9.7551632 2.1085362 0.53635758
1.650629 2.1338539 0.53177834
0.79440117 2.1668859 0.53259039
-23.757673 2.1846163 0.53249705
-22.347443 2.2531798 0.53815675
-22.018629 2.2637939 0.53547025
-21.176794 2.3210757 0.5340836
-20.511719 2.4886107 0.53679442
-25.333065 2.572717 0.53528339
-20.934044 2.5939891 0.53291726
-25.698586 2.667882 0.53615689
-22.678089 2.7055607 0.53050351
-20.883335 2.7025461 0.53981876
-24.934624 2.7155457 0.53658593
-23.953766 2.7116735 0.53606778
-21.582302 2.7181525 0.53316736
-22.251823 2.7708633 0.53149641
-9.875268 2.9093566 0.53989148
-22.75486 2.9104116 0.53797174
-21.880358 2.9551723 0.53565407
-16.432762 2.9656389 0.53467703
-13.992269 2.9801967 0.53254175
-22.529936 2.9910359 0.53271794
-20.763439 3.0837102 0.53917032
-13.471931 3.1353664 0.53425801
-8.8522186 3.1549077 0.53401959
-14.374861 3.1797037 0.5390268
-13.893753 3.2544959 0.53622764
-13.624559 3.2507524 0.53108352
-8.2327013 3.2772648 0.53462625
-8.3044996 3.3358126 0.53715056
-22.68862 3.3421855 0.53702879
-23.858114 3.3590539 0.53603172
1.7815819 3.3652191 0.53949797
-15.581762 3.3889332 0.53696203
0.25711918 3.4081559 0.53910863
-14.654535 3.4191449 0.53098673
-16.653187 3.4547226 0.53635424
-8.791153 3.4698801 0.53313476
-13.842296 3.6013594 0.53521103
-8.8602047 3.6133871 0.53412616
0.67036819 3.6246014 0.53141099
-11.470597 3.6345079 0.53161621
-13.09825 3.6425259 0.53682864
-10.809139 3.6423109 0.53671813
-15.616367 3.6503675 0.53691292
-15.431026 3.6684432 0.53213209
-12.702002 3.6639109 0.53790241
-11.348024 3.6609318 0.53946048
-11.205086 3.6639109 0.53790343
-5.534821 3.6775811 0.53516239
-15.044147 3.6834154 0.53633821
-13.624559 3.7350979 0.53108352
-11.019444 3.7412875 0.53832376
-15.358998 3.7793694 0.53720033
-0.31992722 3.7793012 0.53162014
-12.401537 3.803061 0.53236508
-11.505543 3.8030601 0.53236139
-10.986481 3.8040452 0.53216326
0.48201561 3.8179965 0.5326643
-8.0940027 3.836729 0.5331375
-12.077272 3.8797719 0.53055543
-11.829586 3.8796601 0.53036588
-1.8610506 3.8863931 0.53494102
-1.2990236 3.9143217 0.535025
-1.3018541 3.9337378 0.53043312
-2.618783 3.955224 0.53046703
-1.4143877 3.9609709 0.53547406
0.90971756 3.9622688 0.53315401
-1.8681564 3.9862576 0.53590727
-2.3261862 4.011806 0.53661108
1.1417093 4.0238829 0.53731352
-24.897127 -6.1760597 0.54550099
-22.609493 -6.0941868 0.54185557
-21.916168 -6.073101 0.5485673
-23.830894 -6.0491309 0.54618627
-10.993427 -6.0453606 0.54785681
-22.331095 -6.0282059 0.54582405
-14.810015 -5.9663272 0.54960215
-10.415671 -5.9587855 0.54129887
-9.4982204 -5.9237089 0.54437971
-13.565035 -5.8704529 0.54198599
-9.9147091 -5.8510389 0.54113483
-17.416954 -5.8172779 0.54458439
-14.121122 -5.7917566 0.54086423
-15.559431 -5.7858982 0.54876286
-13.917822 -5.7577109 0.54414511
-21.720901 -5.7430925 0.54868031
-16.958046 -5.7375693 0.54683125
-12.185716 -5.7119966 0.54842234
-11.721369 -5.7119975 0.5484246
-10.083673 -5.7146468 0.54405171
-9.9996233 -5.7039194 0.54359722
-23.750486 -5.6941223 0.54562092
-22.767342 -5.6939116 0.54592061
-22.275806 -5.6939116 0.54592085
-10.499924 -5.6930842 0.54515576
-21.61521 -5.6617675 0.54591143
-8.1331444 -5.6665192 0.54995418
-22.312704 -5.6551967 0.54844618
-13.258684 -5.6510835 0.54212129
-6.6099849 -5.6421804 0.54857445
-22.954302 -5.639493 0.54994118
-14.787496 -5.6276197 0.5435909
-21.184547 -5.616529 0.54280198
-15.707431 -5.6102886 0.54697752
-22.448736 -5.6057615 0.54898989
-9.2446632 -5.6025991 0.54017425
0.088746071 -5.6041946 0.54883492
-22.310934 -5.5774751 0.54706264
-17.321501 -5.554987 0.54305339
-9.2446842 -5.5512877 0.5466212
-25.107487 -5.5073776 0.54488474
1.2017927 -5.5041752 0.54585344
-2.9555607 -5.491847 0.54751146
-21.766628 -5.4671483 0.54610062
-17.422318 -5.4671073 0.54684025
-15.921266 -5.4614244 0.54537117
-24.524744 -5.4330044 0.54239607
-2.0269222 -5.4247599 0.5431847
-1.5505657 -5.4054632 0.54297978
-1.457612 -5.4012609 0.54312158
-14.472732 -5.3912492 0.54213929
-21.950703 -5.3863964 0.54647398
-21.22534 -5.3579316 0.54566121
-5.4741554 -5.359921 0.54712868
-23.710188 -5.3496594 0.54407287
-7.4713745 -5.3435698 0.54146349
-20.629524 -5.3389034 0.54655564
-22.595152 -5.3165646 0.54138255
-4.8940263 -5.312418 0.54207861
-1.0760365 -5.3105979 0.5405736
-13.235062 -5.3095217 0.54645634
-9.3668156 -5.3032293 0.5429163
-25.4235 -5.2959118 0.54083967
-14.447933 -5.2949185 0.54028463
-3.335125 -5.281867 0.54496908
-21.079819 -5.2642603 0.5443778
-16.949074 -5.2690983 0.54735422
-9.7676277 -5.2443061 0.54786587
-7.6547837 -5.2243986 0.54228175
-6.8737078 -5.2109194 0.54106504
-7.1471682 -5.2069907 0.54179227
-0.024039268 -5.2039762 0.54943275
-2.1179523 -5.1996117 0.54941213
-6.6442595 -5.1897292 0.54103017
-13.449291 -5.1775355 0.54104555
-6.1462612 -5.1726513 0.5405513
-0.047452927 -5.1604357 0.54010403
-16.679579 -5.1589942 0.54509413
-5.6529675 -5.155735 0.5400784
0.82131577 -5.1495967 0.54015422
-3.7573671 -5.1379209 0.54169255
-25.30246 -5.1208196 0.5476414
-15.152989 -5.1095781 0.54045677
-7.3953066 -5.1039219 0.54064542
-25.153069 -5.0964046 0.54957998
-4.290328 -5.0306401 0.54152614
0.33731937 -5.003171 0.54323083
-7.9142122 -4.997725 0.54048091
-5.4353304 -4.9721537 0.54316902
-3.3948832 -4.9620624 0.54272592
-1.1421585 -4.9566121 0.54267794
0.18994522 -4.9318266 0.54785395
-4.8206997 -4.9236317 0.54110175
-0.29948807 -4.8932476 0.5488553
-0.79625797 -4.8540907 0.54986715
-1.6841984 -4.8490496 0.54224712
-1.8224535 -4.8106837 0.54776418
2.2956667 -4.7933073 0.54625881
-2.2234926 -4.742033 0.54181987
-2.1895952 -4.7317095 0.54143047
2.0114422 -4.6999073 0.5485785
-24.853468 -4.6688137 0.54583359
-3.4553823 -4.6642556 0.54369032
0.94474602 -4.6655922 0.54271704
-0.057623863 -4.6406646 0.54897869
0.040681839 -4.5739207 0.54849875
2.4536648 -4.5706992 0.54131079
-25.379833 -4.4313579 0.54476857
1.9343023 -4.3702383 0.54723167
-16.872503 -4.3047528 0.549968
-25.441973 -4.2963033 0.54079556
-22.602192 -4.2881746 0.54725814
-17.220823 -4.2653918 0.54310662
-20.391037 -4.2598457 0.54387116
-16.424286 -4.2236738 0.54500228
-21.053452 -4.1826024 0.54400158
-15.472259 -4.1845388 0.54659545
-16.97716 -4.1758366 0.54449177
-15.761305 -4.1709394 0.54553694
-9.604394 -4.1648846 0.5486331
-21.323196 -4.1314745 0.5449574
-16.603018 -4.1195784 0.54012442
-23.001286 -4.0180092 0.54938996
-15.74544 -4.0162039 0.54945976
1.7047348 -3.9971511 0.54969704
-22.254208 -3.9318857 0.54724097
-2.1417408 -3.9263413 0.54183483
-8.1676102 -3.8735251 0.54333717
-7.6547837 -3.8625135 0.54228175
-7.1471682 -3.851634 0.54179227
-14.740815 -3.8485651 0.54612255
-6.6443949 -3.840858 0.54130971
-25.187567 -3.8304584 0.5461784
-5.6529675 -3.8195992 0.5400784
-2.8253851 -3.8028882 0.54600513
-16.916473 -3.7665341 0.5418725
-13.688639 -3.7687068 0.54180437
-17.021961 -3.7571549 0.54351735
-13.293198 -3.7546337 0.54396039
-3.91717 -3.7598114 0.54936004
-2.6041126 -3.7513585 0.54567707
2.0912685 -3.7539299 0.54770428
2.4713545 -3.7466021 0.54487228
-23.516323 -3.7389631 0.54731417
-2.6655684 -3.7207468 0.54699337
-23.001251 -3.7124367 0.54996562
-4.4689255 -3.7098556 0.54772162
-24.650928 -3.6956978 0.54385579
-23.219528 -3.6900511 0.54644108
-4.5959139 -3.6965389 0.5416081
-24.69602 -3.6820493 0.54851532
0.27652073 -3.6707644 0.54479051
-2.1251698 -3.6513836 0.54850781
2.2976971 -3.6557231 0.54695499
-6.9319844 -3.6499381 0.5454179
-23.501194 -3.638782 0.54070389
-23.128574 -3.6321826 0.54769015
-21.224228 -3.6367579 0.54353005
1.1495686 -3.6396592 0.54522359
-23.921513 -3.6246309 0.54080153
-2.0979252 -3.6128471 0.54585719
-1.4470921 -3.6137435 0.54171431
-24.327408 -3.601131 0.54256845
-22.036465 -3.6005301 0.54240227
-5.6037607 -3.6066275 0.54988408
1.8402328 -3.6065373 0.5494051
-22.441437 -3.5903616 0.54350388
-17.263901 -3.5941932 0.54046082
-7.5278945 -3.5859318 0.54400295
-22.500406 -3.5601249 0.54204905
-5.6160049 -3.5512652 0.54218787
-3.7521229 -3.5589104 0.5436278
0.53114796 -3.5559649 0.54613543
2.3183765 -3.5503843 0.5487051
-5.9880028 -3.520107 0.54660434
-3.5099268 -3.5261893 0.54327393
-1.1645422 -3.5262766 0.54359674
-15.728958 -3.5006623 0.54434967
-6.7676888 -3.5015187 0.54327655
-21.466076 -3.4603095 0.54632103
0.0054883957 -3.4595017 0.54914582
-13.63765 -3.4356835 0.5471487
-25.426435 -3.4133744 0.54068065
-23.506767 -3.4195967 0.54722762
-23.068415 -3.4041109 0.54704642
-20.93441 -3.4087062 0.5453161
-7.6547837 -3.4085522 0.54228175
-22.628117 -3.3885942 0.54717028
-8.4025631 -3.3831735 0.54729807
-6.1462612 -3.3826785 0.5405513
-15.559305 -3.3551378 0.54873025
-1.5450163 -3.3560059 0.54369664
1.7952795 -3.3539484 0.54302549
-16.640469 -3.3053827 0.54433274
-23.659117 -3.2912269 0.54384947
-25.45022 -3.2782505 0.54597688
-13.688871 -3.2758653 0.54838806
-20.997398 -3.2336617 0.54040933
-7.1585183 -3.2270184 0.54527426
-22.427099 -3.2199574 0.54533309
-13.859145 -3.1878376 0.54841435
-1.5588884 -3.1743286 0.54532743
-5.5069847 -3.1649995 0.54053175
-25.184505 -3.1338997 0.54850805
-16.603018 -3.1088293 0.54012442
-14.425934 -3.0679357 0.54684567
-2.759263 -3.0223751 0.54708946
-7.364501 -3.0001204 0.5462445
-23.95768 -2.98663 0.54720616
-3.6706901 -2.9661269 0.54777163
-7.6547837 -2.9545903 0.54228175
-2.1207438 -2.9344161 0.54769611
-25.405365 -2.9182401 0.54804087
-7.1900821 -2.8979239 0.54487121
-1.9385881 -2.8453252 0.54178011
-15.534342 -2.8283386 0.5456394
-16.703072 -2.7976263 0.54322529
-6.049211 -2.781503 0.54340231
-0.81289101 -2.7837296 0.54623842
-2.6526775 -2.7335854 0.54305577
-13.858931 -2.7232413 0.54575855
-1.4667692 -2.6966317 0.54961622
0.8432169 -2.6926241 0.5463891
-9.149147 -2.6818504 0.5419569
-2.1661091 -2.6617179 0.5443027
-7.4654045 -2.6579652 0.54044825
-6.0163164 -2.647588 0.54917699
0.51237106 -2.6279616 0.54784751
-3.2312202 -2.5958662 0.540295
-25.257439 -2.5646069 0.5400306
0.2657299 -2.5315607 0.54872847
0.78676701 -2.4212089 0.54021072
1.1777267 -2.4248612 0.54551017
-2.4731512 -2.4198694 0.5468803
0.85562897 -2.3921199 0.54731035
0.55614471 -2.3842318 0.54619884
-24.863766 -2.3693693 0.54726696
1.2325211 -2.3511829 0.54245448
1.6837606 -2.2477851 0.54752922
-11.385538 -2.2378559 0.54550421
-22.607273 -2.2222605 0.54623318
1.8597298 -2.2065358 0.54992259
-25.520855 -2.1136541 0.54701972
-24.381256 -2.0925031 0.5489645
-23.818878 -2.0968018 0.54998231
-23.344261 -2.0968022 0.54998267
-22.869587 -2.0966201 0.54969347
-21.445753 -2.0966191 0.54969203
-11.478933 -2.0966208 0.54969478
-11.004322 -2.0966201 0.54969382
-25.353436 -2.0801177 0.54038978
-11.859936 -2.0889463 0.54762733
-12.418303 -2.0764112 0.54574251
-11.350131 -2.0625119 0.54642159
-11.927691 -2.0568264 0.54554522
2.3051443 -2.0494614 0.54124427
-11.434757 -2.037149 0.54534876
-24.69602 -2.0105743 0.54851532
-20.512051 -1.9396003 0.54161727
-24.517738 -1.8893358 0.54921961
2.2780228 -1.8715467 0.54553246
-15.700676 -1.8392563 0.54651105
-23.740635 -1.7527232 0.54055703
-13.787383 -1.7543502 0.54908186
-16.224501 -1.7497125 0.54237342
-15.749924 -1.7494215 0.54254901
-24.41671 -1.7366288 0.54815733
-24.236254 -1.7380202 0.54826128
-24.188446 -1.726415 0.54656506
-21.277802 -1.7047145 0.54228616
-17.442398 -1.6942871 0.54393959
2.0386982 -1.6959579 0.54144001
1.8130531 -1.6272677 0.5457145
-11.860114 -1.6122125 0.54780179
-16.855707 -1.6012001 0.54733443
-23.477737 -1.5927056 0.5488863
-23.122704 -1.595945 0.54716885
-12.418962 -1.5987003 0.5458535
-11.349957 -1.5927056 0.54613483
-7.8796778 -1.5940187 0.54682755
-11.927724 -1.577958 0.54565585
-2.3513613 -1.575123 0.54896408
-11.434155 -1.5571177 0.5454601
-23.757954 -1.538422 0.54927313
-23.285713 -1.5382435 0.54898441
-22.81354 -1.5382445 0.54898596
-22.340683 -1.5362829 0.54581201
-21.86919 -1.5382435 0.54898441
-21.789661 -1.5365746 0.54661787
-21.397072 -1.5384207 0.54927099
-11.481368 -1.5384235 0.54927552
-11.479656 -1.5385602 0.54949635
-11.009194 -1.5382433 0.54898393
-8.5275774 -1.5385813 0.54105848
-2.503149 -1.536842 0.5485599
-6.7487273 -1.525582 0.54681194
-2.0646124 -1.5063659 0.54962373
-4.083725 -1.4986815 0.54013532
-1.6866455 -1.4885061 0.54031944
-23.270899 -1.4402162 0.54509926
-3.3697767 -1.4444449 0.54880196
-1.0578232 -1.445581 0.54082334
-3.7014084 -1.4334769 0.54476917
-1.8632088 -1.4280268 0.54597723
-4.6993346 -1.4071087 0.54998207
-0.61487484 -1.4030293 0.545362
-0.21143818 -1.4072844 0.54586989
-21.477966 -1.3961813 0.54645824
-16.303503 -1.3956172 0.54555213
-0.65940762 -1.3934429 0.54762697
-2.3109674 -1.3884649 0.54624414
-1.1830721 -1.3822954 0.5408572
-0.16099262 -1.3861396 0.5439682
-8.8101263 -1.3704228 0.54834324
-6.974462 -1.3787912 0.54328752
-0.025951385 -1.370629 0.54266953
2.2890444 -1.3779341 0.54423606
-2.3871012 -1.3614085 0.54764378
-21.806639 -1.3401692 0.54561603
-21.569916 -1.3432399 0.54050565
-14.508543 -1.3236012 0.54451132
0.71789932 -1.3284235 0.54503727
-14.410161 -1.3120646 0.54230601
-4.398479 -1.3140401 0.54818976
-6.0309873 -1.284384 0.54414171
-17.260445 -1.2607522 0.54115194
-4.6045618 -1.265561 0.54887676
-3.4171991 -1.2628863 0.54534507
-2.2666464 -1.2604213 0.54209948
2.0619249 -1.2646313 0.54209948
-1.6156092 -1.2587838 0.54896688
0.29762745 -1.2586917 0.54157495
-8.8111553 -1.2401925 0.54225039
1.4128008 -1.2190596 0.54807252
-1.1745453 -1.1949358 0.5478406
-2.7678976 -1.1840212 0.54889309
-6.0975428 -1.1703241 0.5401268
-16.184467 -1.1405212 0.54671812
-11.292177 -1.1474506 0.54441404
-11.860293 -1.1342812 0.54797399
-7.8864918 -1.1375198 0.54642022
-11.349957 -1.1229022 0.54613483
-14.15136 -1.1108916 0.54914111
-7.8849359 -1.1016285 0.54791796
-22.522297 -1.0992465 0.54435885
-7.2868824 -1.0990627 0.54703021
-6.6827683 -1.096473 0.54643798
-5.4553189 -1.0912113 0.54523325
-4.8315468 -1.0885351 0.54430938
-4.2017984 -1.08584 0.5443182
-3.5645485 -1.083106 0.54337811
-1.5989943 -1.0871121 0.54835033
-2.2697096 -1.0775554 0.54210949
-1.6116571 -1.0747346 0.54146385
-0.94609261 -1.0718791 0.54049301
1.6155758 -1.0721366 0.54774094
-23.829529 -1.0675529 0.54431808
-12.428577 -1.0676565 0.54464674
-11.953541 -1.067553 0.54431856
0.40341377 -1.0661218 0.54306173
-21.352955 -1.0577025 0.54715693
-16.982821 -1.0540848 0.54031885
-1.1652374 -1.059701 0.54745388
0.13815689 -1.0588127 0.54020536
-13.439654 -1.0422169 0.54384959
-22.330925 -0.99446654 0.54818583
-22.307709 -0.99468184 0.54099846
-24.637184 -0.98574656 0.54857063
-22.75819 -0.98592037 0.54885733
-22.288361 -0.9857468 0.54857099
-21.818596 -0.98574626 0.54857028
-11.483773 -0.98592055 0.54885757
-11.014009 -0.98592204 0.54885995
-25.290974 -0.97777104 0.54816699
-22.560696 -0.9398067 0.54747343
1.5695019 -0.9391048 0.54213095
-6.9831533 -0.92988914 0.54302919
0.24442482 -0.91109157 0.54610825
-3.9463177 -0.90451717 0.54498577
-25.618874 -0.8826974 0.54726696
-0.2105732 -0.88592958 0.54626465
-9.3810501 -0.87315834 0.54872435
-14.508151 -0.86065573 0.54737777
-6.0392094 -0.84293097 0.54361033
-25.716923 -0.83928204 0.54856145
-15.138602 -0.7961269 0.54332149
-20.562237 -0.78349578 0.54236627
-1.2210417 -0.73538017 0.54128468
-3.6109238 -0.71352446 0.54877162
1.7686243 -0.71854556 0.54668188
-15.224231 -0.69189858 0.54058039
-13.406606 -0.68023372 0.54599458
-7.8932791 -0.68280017 0.54601765
-16.899601 -0.67520976 0.54740036
-23.5893 -0.66732323 0.54818726
-9.4748039 -0.66770697 0.54431689
-11.66866 -0.65157807 0.54995692
-3.4528971 -0.64818972 0.54368842
-0.14709377 -0.64818972 0.54368746
-15.725296 -0.63584757 0.54160869
-3.9395084 -0.63397789 0.54810357
-1.5114889 -0.6282028 0.54493016
-8.4766026 -0.61562395 0.54849887
0.064563751 -0.61672986 0.54856104
-15.594221 -0.59614044 0.54409957
-12.42979 -0.56830096 0.54446435
-11.95354 -0.56830144 0.5444659
-11.477292 -0.56830168 0.5444665
-1.611393 -0.55675673 0.54114389
-1.6328945 -0.54635459 0.54549825
-6.7332082 -0.50202179 0.54521596
-15.43105 -0.48460567 0.54987514
-15.905338 -0.46244323 0.54591048
-15.838718 -0.46142852 0.54730451
-13.85373 -0.46315759 0.54053605
-7.9693089 -0.46241057 0.54074836
-7.1470909 -0.44560671 0.54991132
2.233264 -0.44648027 0.54099047
-25.039637 -0.43766963 0.54616332
-11.441444 -0.43753296 0.54007804
-6.0484357 -0.40368104 0.54326344
0.38334465 -0.40301698 0.54808587
-9.4002047 -0.39906228 0.54933953
-9.6512356 -0.36949676 0.5471676
-6.3519168 -0.35539281 0.54432607
-5.195425 -0.35462767 0.54535878
-8.1994009 -0.33018684 0.54118037
-5.8303885 -0.33106923 0.5447886
-5.3061776 -0.30656481 0.54491806
-0.15485477 -0.29755354 0.54509532
-11.398683 -0.28104699 0.54762423
-4.7791195 -0.28181565 0.54437447
-25.353601 -0.27547884 0.5462935
-6.2710891 -0.27372086 0.54818106
-0.15628433 -0.27757931 0.54568338
-3.7176094 -0.23213887 0.54429698
2.7251463 -0.23540163 0.54193622
-13.472201 -0.22723973 0.5461967
-1.2957573 -0.22425932 0.54404998
1.7744789 -0.21824145 0.54168916
-11.668339 -0.18102252 0.54985982
-25.893719 -0.16398025 0.54608238
-0.66844082 -0.14422011 0.54989743
-0.47114754 -0.080836058 0.54783678
-12.431004 -0.066612363 0.54494238
-11.953541 -0.066502571 0.544613
-11.476081 -0.066612124 0.54494166
-22.694569 -0.043734312 0.54521978
-24.008636 0.046439648 0.5498755
-22.183903 0.10267055 0.54747093
-24.780922 0.14968574 0.5480032
-22.060711 0.15985513 0.54782927
-22.702703 0.20787859 0.54092526
-21.963017 0.2031939 0.54347479
-11.402729 0.21423697 0.5482794
-22.570713 0.26980329 0.54984975
-24.804056 0.33723718 0.54467726
-24.518911 0.37304068 0.54296958
-15.961128 0.37792826 0.54108471
-22.22764 0.38818884 0.5419395
-22.094328 0.43916309 0.54974288
-22.005907 0.43786335 0.54475963
-12.432222 0.4377501 0.54509091
-11.953541 0.43775058 0.54508936
-11.474859 0.43774986 0.54509175
-16.981995 0.46206152 0.54151022
-21.571583 0.47846448 0.54154229
-16.743071 0.51991558 0.54000062
-24.17185 0.5223856 0.54539037
-17.13714 0.52983141 0.54227591
2.0167961 0.54636431 0.54225361
-14.898586 0.55957532 0.54963529
-16.501179 0.60223603 0.54512215
-21.669754 0.63875008 0.54678869
-21.207081 0.63874936 0.54678965
-20.74435 0.6389122 0.54650605
-16.580284 0.63891196 0.54650629
-15.192282 0.63874948 0.54678953
-7.7913074 0.67221928 0.54960835
-7.4101844 0.70449066 0.54944742
-11.405516 0.71148944 0.54872775
-7.7428846 0.72717571 0.54015279
-20.481667 0.81959963 0.54571617
-1.869771 0.85495317 0.54604489
-0.51111317 0.8629905 0.54032123
-6.1797924 0.87001479 0.54822361
-3.0934191 0.87383366 0.54467428
-1.5345116 0.88486028 0.54368663
-8.9686432 0.90375662 0.54030704
-0.98761463 0.91296482 0.54381418
-14.518983 0.92780232 0.54562557
-12.055731 0.92341924 0.5491038
-25.391064 0.94481516 0.54490829
-4.201561 0.94163883 0.54400468
-2.5821905 0.94427276 0.54086661
-0.34250832 0.94448996 0.54931867
-3.6135073 0.96368968 0.5400039
0.34713364 0.97211754 0.5405246
-25.127914 1.0128114 0.54192603
-8.399889 1.0248871 0.54481983
-24.96682 1.0466142 0.54731727
-8.6554728 1.0406184 0.54494643
-7.8862023 1.0524802 0.54494691
-25.371698 1.0735502 0.5403533
-21.783894 1.0779008 0.54832745
-11.47893 1.0785253 0.54259837
-7.3697758 1.0803475 0.54440928
-6.8510656 1.108211 0.54453862
-13.627546 1.1292617 0.54494399
-6.3298225 1.13621 0.54466832
-8.3034792 1.1444871 0.54089111
-20.748096 1.1508338 0.54855323
-11.979772 1.1516469 0.54325032
-16.894024 1.166527 0.54171705
-16.557148 1.1694648 0.54610991
-16.096786 1.1694634 0.5461123
-23.001682 1.170728 0.54386306
-21.766174 1.1746774 0.54968989
-16.52174 1.1767168 0.5455215
-1.9217472 1.1713244 0.54010546
-1.8528595 1.1827708 0.54041374
-21.916874 1.1921036 0.54363477
-15.123711 1.1918387 0.54380369
-5.2793827 1.1927638 0.54425454
-11.408953 1.211338 0.54928267
-4.7504139 1.221179 0.54438162
-1.4180117 1.2368201 0.54038012
-15.408433 1.2647156 0.54931331
-3.6843309 1.2785749 0.54396272
-16.154243 1.3072679 0.54363298
-3.1473131 1.307487 0.54375386
0.95738029 1.3002393 0.54308558
-14.006218 1.3109436 0.54449654
-9.7200356 1.3482664 0.54247487
-8.9223108 1.3440416 0.5454995
-14.208247 1.3533101 0.54607904
1.2983961 1.3537549 0.54550743
2.0598831 1.3591235 0.54127985
-7.2851872 1.3692995 0.54459453
-14.81916 1.3716638 0.54358822
-8.8486118 1.395672 0.54729378
-5.8562913 1.3940814 0.54640591
