# .PCD v0.7 - Point Cloud Data file format
VERSION 0.7
FIELDS x y z
SIZE 4 4 4
TYPE F F F
COUNT 1 1 1
WIDTH 1506
HEIGHT 1
VIEWPOINT 0 0 0 1 0 0 0
POINTS 1506
DATA ascii
-1.4192233 1.5844922 0.68548501
7.837214 1.6095262 0.68459046
-0.7695384 1.6895249 0.684237
-2.161509 1.7011185 0.68604326
5.9559593 1.7347473 0.68350089
8.3256235 1.8519713 0.68554389
-4.633234 1.9296074 0.68896931
-2.2888265 1.9438198 0.68052602
0.31956029 1.9632785 0.68095553
8.2797451 1.9838735 0.68705869
3.2610769 2.0435653 0.68258923
-2.0395637 2.156388 0.68410575
0.59593093 2.1554308 0.6810841
-1.2515824 2.1696444 0.68731511
1.0904737 2.3731515 0.68069285
7.5925713 2.3797159 0.68467647
7.0226965 2.3868535 0.68307245
-2.4414353 2.4535356 0.68987095
1.2392454 2.5407028 0.68399674
7.2994204 2.6440461 0.68219858
3.8046908 2.7585051 0.68592936
0.62426662 2.8256121 0.68849963
-0.044623137 2.8380442 0.68696892
7.1812272 2.8409419 0.68183231
7.0439663 2.8781559 0.68340778
-3.1713402 2.9662838 0.68446183
1.8529303 3.0207062 0.68240798
7.2217808 3.1474702 0.68169785
0.18664503 3.2244513 0.68685734
0.3221457 3.2610741 0.68134165
0.25340986 3.277977 0.68051922
-2.7283025 3.2986727 0.6888054
1.1493535 3.3733199 0.68899369
6.9187012 3.3921134 0.68427908
6.6882286 3.478925 0.68802309
-2.5737438 3.5201831 0.68214619
-0.51818228 3.534549 0.68878025
6.4190111 3.5527797 0.68291056
0.35449195 3.5845633 0.68084848
-3.3838015 3.6338449 0.68399239
0.26412535 3.658771 0.68822873
0.12952161 3.6871629 0.68262559
6.7291012 3.7683926 0.68547571
6.6327477 3.7978888 0.68981248
-0.048658133 3.8809695 0.6873458
6.0956783 3.9354362 0.6830759
-3.8046622 3.9512124 0.68314731
2.3233778 4.0065751 0.68343747
6.4830275 4.0100923 0.68638402
-4.1313868 4.0748448 0.68408304
2.5584354 4.0984764 0.68057978
3.1495173 4.1237164 0.68009436
-0.14330363 4.1347299 0.68511796
-4.1924353 4.1637559 0.68442571
-4.4194074 4.2257018 0.68238109
6.1091719 4.2463427 0.68340313
-0.48258138 4.4463115 0.68724936
-1.0651248 4.4809747 0.68389416
3.1063795 4.6151423 0.6827516
-4.5883427 4.6668148 0.6854763
5.2786169 4.7195263 0.68635911
1.3047378 4.7263465 0.68121672
-5.3611879 4.7431984 0.68262523
1.2956543 4.752872 0.68314064
5.4982872 4.7661095 0.68890071
-5.2880211 4.8106427 0.68542355
-0.14147663 4.8449492 0.6834805
3.1788201 4.8650737 0.68125564
-1.0533435 4.8896685 0.68962348
5.6700993 4.8828015 0.68361807
5.5475683 4.8922758 0.68826735
5.783596 4.9125395 0.68429363
5.377512 5.0255179 0.6820066
-1.531162 5.2082448 0.68234247
3.8294401 5.2808905 0.68133283
5.1296968 5.4389257 0.68159336
3.929116 5.4456968 0.68146473
-5.3284636 5.4610977 0.68608212
2.1877103 5.5053272 0.68863612
0.73738265 5.5306649 0.68463457
4.6985683 5.5394654 0.6806758
0.87715364 5.7613931 0.68640637
-5.7297225 5.8306794 0.68008614
1.9610872 5.8311539 0.68693709
1.6223378 5.9615049 0.68840295
4.2676134 5.9638386 0.68891728
0.81000543 6.0115952 0.68818426
0.78726506 6.0403128 0.68720508
1.47192 6.0609303 0.6838429
1.0426173 6.1453624 0.68863285
4.1900854 6.4074221 0.68904912
3.2443202 6.4434757 0.68631566
3.6533222 6.4721222 0.68190634
3.7399712 6.6703358 0.6805461
2.7473319 6.7674036 0.68972623
-6.7051954 6.810533 0.68784618
-3.0748177 6.8540487 0.68728888
2.230464 6.9411812 0.6876477
0.74116468 7.0147743 0.68903196
2.7250335 7.0562696 0.68789065
3.0608509 7.1550241 0.68701601
-0.083879709 7.2484884 0.68199039
-6.7159925 7.2677593 0.6825912
3.2221088 7.3200874 0.68850315
-0.68650532 7.4911008 0.68354368
-3.584404 7.5036612 0.68946916
3.2008405 7.5366411 0.68696237
-0.15283966 7.5983243 0.68701094
-0.93901753 7.8399043 0.68661213
2.306716 7.8635178 0.68335938
2.3903193 7.860209 0.68511486
1.8270249 8.1801968 0.68331051
-1.3559978 8.4497833 0.68863547
-1.2880456 8.5992985 0.68635517
1.8483114 8.6156321 0.6805374
2.0260885 8.6376095 0.68076789
-1.5479562 9.0091906 0.68974942
-1.9805171 9.2135277 0.68444306
1.4116318 9.2423763 0.6845414
0.87944317 9.2594891 0.68319798
0.65630603 9.8135128 0.68271142
-0.16755366 9.8550034 0.68944812
0.5468502 10.125398 0.68272555
-7.658505 10.258751 0.68410003
-7.2143497 10.301134 0.68903697
-6.9652424 10.345929 0.68515933
-6.4484196 10.752103 0.68859732
-0.82893848 11.257026 0.68929672
-1.2483163 11.569062 0.68261647
-1.4905534 11.881943 0.68739545
-6.0097728 11.905828 0.68522775
-1.9802179 12.377666 0.68843722
-2.3280964 12.798856 0.68116093
-5.2280216 13.240562 0.68778503
9.5153418 -11.695253 0.69955599
8.3676338 -11.542283 0.69359779
8.001236 -11.53986 0.69169283
8.2067814 -11.419291 0.69872028
9.427639 -11.186836 0.6976763
10.124571 -11.113937 0.69157326
9.8857164 -10.709895 0.69348276
9.5331993 -10.51123 0.69413459
8.869585 -10.176304 0.69126385
10.886818 -9.5984917 0.69442284
11.324973 -9.4282656 0.69536847
11.393229 -9.3509865 0.6938026
10.515577 -9.3009548 0.69003409
10.513517 -9.2767954 0.69326031
9.8124962 -8.7983074 0.69146371
5.350204 -8.7839642 0.69710147
7.1984463 -8.6594877 0.69969147
8.8337078 -8.5406523 0.69032592
9.4666929 -8.4161367 0.69844371
7.380343 -8.3649406 0.69698894
7.2783718 -8.1678228 0.69711751
9.5594616 -8.1438284 0.69879878
9.2765255 -8.0947781 0.69613624
6.7414398 -7.9942179 0.69683731
8.8756638 -7.9988985 0.69441688
8.7973528 -7.9054637 0.69189018
4.613534 -7.548532 0.69204873
7.251708 -7.5496716 0.69849151
6.2348185 -7.3316298 0.6924873
14.038555 -7.2355165 0.69604409
8.5199738 -7.2194924 0.69643509
8.1910286 -7.1197462 0.69001734
5.8289061 -7.1084146 0.69475061
5.8275671 -6.9251714 0.69301569
8.1886158 -6.9088306 0.6921922
8.055479 -6.6826129 0.6985085
7.6870632 -6.6692839 0.69138914
3.6910648 -6.556128 0.69185513
13.758861 -6.5562582 0.69216675
3.3821611 -6.5317888 0.69102287
13.818644 -6.4916153 0.69863582
13.324412 -6.391902 0.69415456
5.0975742 -6.3770647 0.69819891
5.3264861 -6.3180203 0.69942367
5.3071432 -6.3028207 0.69611406
5.3889232 -6.2306123 0.69996297
14.670896 -6.2143526 0.69505262
5.317729 -6.2005429 0.69090533
5.0409813 -5.9727917 0.69785106
2.4638476 -5.8985262 0.69268334
8.8319788 -5.7690392 0.69734943
12.220549 -5.6488481 0.69975066
2.2990401 -5.5955839 0.6987592
2.1498895 -5.5684638 0.69828284
3.3063362 -5.5642996 0.69698614
2.7830396 -5.4535956 0.69084835
2.2229338 -5.267159 0.69044471
2.1368532 -5.1073065 0.69771731
6.0174618 -4.9241457 0.69432724
2.1392164 -4.8363113 0.69817078
2.2229338 -4.8200245 0.69044471
1.3645062 -4.8108053 0.69955361
14.264481 -4.8189697 0.69593823
2.7430301 -4.7845964 0.69919801
3.7801993 -4.7574978 0.69942141
1.2209431 -4.7062368 0.69275904
14.399652 -4.7076788 0.69432569
1.5013983 -4.6725774 0.69192123
5.951561 -4.6495757 0.69904703
5.7633505 -4.6217136 0.69858378
5.9089336 -4.5953441 0.69874245
1.86286 -4.5848856 0.69010711
3.9402704 -4.4912515 0.69294059
4.7425518 -4.4766011 0.69064271
1.8939476 -4.4341769 0.69733489
1.9205602 -4.4293604 0.69785631
1.047966 -4.3782268 0.6975987
1.0739343 -4.3392515 0.69616747
3.7477152 -4.283226 0.69165027
5.5777764 -4.2112975 0.6910156
2.701683 -4.1080184 0.69690108
5.1825385 -4.1002603 0.69019532
1.2794636 -4.0987406 0.69511205
10.987428 -3.9334044 0.69189751
4.8391156 -3.8917518 0.69514161
0.94929647 -3.8752415 0.69097555
4.2937622 -3.8747995 0.69255877
6.6064382 -3.8743701 0.69127762
3.1963611 -3.8519032 0.69422054
0.95240712 -3.8438034 0.69793111
3.1479092 -3.8420513 0.6974321
3.9307413 -3.8224018 0.69520938
4.7263074 -3.8024337 0.69295287
2.8110721 -3.7383485 0.6975835
13.887441 -3.6218638 0.69977438
0.57714915 -3.4521065 0.69375718
4.671566 -3.4552631 0.69409406
3.738955 -3.4484599 0.69511318
2.4976678 -3.4255371 0.69472063
2.6550817 -3.4284661 0.69674063
0.61773121 -3.402082 0.69922853
0.52870297 -3.392019 0.69831169
4.758461 -3.3537097 0.69960612
1.174509 -3.3476412 0.69774699
-0.10511899 -3.3140171 0.69236779
2.2046611 -3.3056498 0.69736111
1.7427194 -3.2219694 0.69104517
3.1447449 -3.1889207 0.69977236
10.126261 -3.1786397 0.69724751
3.9213729 -3.1644475 0.69744325
1.1268687 -3.1285822 0.6918515
6.5957518 -3.0355163 0.69564897
3.1942594 -3.0298917 0.69761974
1.6807722 -3.0176303 0.69090796
2.1235108 -3.0124149 0.69938159
0.0084180832 -2.9731169 0.69655681
0.072382927 -2.9436598 0.69457388
-0.51287627 -2.9066737 0.69903851
5.3966084 -2.853622 0.69375062
-0.24594688 -2.8014565 0.69811726
5.0330305 -2.7991657 0.69300163
5.5307236 -2.7361343 0.6900512
5.0954037 -2.7217941 0.69854051
5.3802967 -2.7082644 0.69271696
3.6807032 -2.6495867 0.6900996
-0.897995 -2.5955367 0.69918537
-1.0706294 -2.5635867 0.69546223
5.1764746 -2.5418258 0.69830215
6.0120974 -2.3768086 0.69259518
1.8299942 -2.3593516 0.69023013
5.1598005 -2.3154612 0.69271636
5.6647863 -2.2803786 0.69504237
5.5142298 -2.2609453 0.69580233
5.1005459 -2.258338 0.69808114
5.7619638 -2.2184072 0.69719052
-1.0381627 -2.1790049 0.69437253
5.0585451 -2.1697841 0.69139314
4.5607548 -1.9688067 0.69540441
-1.4922051 -1.9492775 0.69826972
3.3445332 -1.9103287 0.69494122
5.0472555 -1.8604975 0.69110751
5.8624992 -1.860657 0.69024742
2.7390447 -1.8528891 0.69272435
7.7480807 -1.7443565 0.69547415
5.2202396 -1.6824534 0.69087124
8.7223701 -1.6890798 0.69891906
2.1709828 -1.6722238 0.6986568
6.2518759 -1.6641781 0.69588596
-1.6509864 -1.6137316 0.69371045
8.5804596 -1.4772444 0.69170213
4.2486176 -1.4232273 0.69817251
4.8260698 -1.4024187 0.69772428
4.6414051 -1.2315762 0.69451982
-1.6139712 -1.2143621 0.6993618
8.1964245 -1.1885097 0.69476348
-2.4200451 -1.1151336 0.69766641
7.8690891 -1.0500755 0.69242108
8.2088785 -1.0581329 0.69534755
4.7387724 -1.0167272 0.69771564
8.1655445 -0.93947709 0.69143659
3.2466004 -0.85604936 0.69723284
5.0040617 -0.83096433 0.69109011
6.7746601 -0.83113176 0.69136101
7.4345527 -0.8221333 0.69210768
3.2692552 -0.81794953 0.69216734
3.2935057 -0.80835569 0.69162941
11.077217 -0.73585725 0.69492888
7.3421183 -0.71155965 0.69255698
7.3317633 -0.69811982 0.69459575
7.2087984 -0.58162659 0.6933369
8.5398426 -0.53390348 0.6973356
6.9917698 -0.50043666 0.69761264
7.6874342 -0.49734125 0.69258523
4.2795687 -0.45721531 0.69511706
-2.2080595 -0.4139865 0.69890475
-2.2498572 -0.39151716 0.69611931
7.8197622 -0.38464043 0.69990563
-2.5199721 -0.35006928 0.6900149
7.4045925 -0.34736928 0.69792068
10.733275 -0.34127593 0.69049859
7.3617029 -0.33945096 0.69131112
3.7115755 -0.3154127 0.69930458
7.6826892 -0.30843914 0.69192326
7.9716392 -0.28535241 0.69648433
7.7093859 -0.22908601 0.69011801
7.8378944 -0.19033936 0.69258261
4.3109655 -0.14521962 0.69673288
-1.9534998 -0.13623643 0.69304001
6.1427813 -0.13809872 0.69485843
-2.761982 -0.11974871 0.69684339
10.478934 -0.065570146 0.69266772
4.3354111 0.16815338 0.69121897
5.845932 0.19810337 0.69700062
-2.6453915 0.25112528 0.69929206
6.4242625 0.28332961 0.69064206
7.1885376 0.30988955 0.6925863
6.4029694 0.4101631 0.69669247
9.8368168 0.41838169 0.69900906
-1.1517434 0.42915392 0.69465369
-0.60632849 0.48484325 0.69722986
6.2161231 0.60423315 0.69786948
5.2789001 0.64406621 0.69933701
6.8297648 0.75320947 0.69307226
7.1785531 0.75224626 0.6920898
8.6279278 0.75320995 0.69307154
-0.64155293 0.79084754 0.69758248
-4.153523 0.83097798 0.69125223
6.8156009 0.86349112 0.69880402
5.5713334 0.91218102 0.69522297
-3.6679974 1.0113351 0.69767463
-3.6760669 1.0322127 0.69307733
-3.650424 1.0762637 0.69106466
5.1041813 1.1281573 0.6942367
-4.1126022 1.1628015 0.69909942
-3.3386855 1.1846861 0.69488305
8.8738823 1.1960973 0.69321507
7.7523117 1.2925221 0.69337755
5.6372485 1.3402021 0.69481194
-2.0035267 1.3661957 0.69342709
8.4465227 1.4292493 0.69334495
8.5014801 1.4292984 0.69864154
-2.1634605 1.4860483 0.69883668
-2.171092 1.5337098 0.69535303
-3.6436892 1.5749018 0.69389129
7.8197622 1.6712331 0.69990563
-1.4971094 1.7026818 0.69706053
-1.5559266 1.7594047 0.69303131
-1.6223779 1.7649509 0.69336283
-1.4389956 1.7685027 0.69314861
-1.6208575 1.7778739 0.69847882
-1.937536 1.7982875 0.6913842
-1.4790699 1.7976327 0.69406712
5.9358225 1.8082211 0.69375515
7.3217182 1.837118 0.69424284
-1.6365974 1.8605714 0.69184911
-1.2034853 1.8663409 0.69266188
5.8255348 1.8642908 0.69174665
8.1036282 1.8606505 0.69025791
-2.0264752 1.9592452 0.69711423
-1.219373 1.9949086 0.69778675
-2.7465267 2.01437 0.69585013
8.2868309 2.0240955 0.69051754
-1.2723377 2.0496225 0.69406593
0.74222398 2.1708479 0.69326699
-2.0764651 2.2754569 0.6927464
6.9950418 2.294214 0.69003588
0.74068594 2.3069224 0.69398427
-2.2624545 2.3345165 0.69641024
7.5669622 2.363842 0.6935997
0.67852974 2.3925431 0.69174623
6.6045942 2.4035881 0.69050175
-1.2137253 2.4262495 0.69820863
1.0873795 2.4551349 0.69149804
1.1287608 2.4571619 0.6950267
-2.129168 2.5389514 0.69258308
6.586832 2.554502 0.69742823
6.7257228 2.592968 0.69793564
7.8569546 2.6021645 0.69023538
7.9247036 2.6382663 0.69703752
-2.581156 2.7604792 0.69158274
7.1161637 2.7768633 0.69155765
-5.9400597 2.8908136 0.69981593
-2.50635 2.9138908 0.69113725
1.8233845 2.9464593 0.69638675
-0.44628739 2.9809906 0.69532645
-5.9325919 2.9996014 0.69641829
-2.4838316 3.0161245 0.69711471
7.046329 3.0196054 0.69879752
-0.25847578 3.1404679 0.69872165
-0.22433114 3.2149518 0.69772685
-6.0438838 3.2915232 0.69224441
-0.48106194 3.3323808 0.69303834
-3.0041616 3.355602 0.69700563
0.39842439 3.3783729 0.69481575
0.46728826 3.3966708 0.69849539
-0.70946527 3.4421144 0.69163167
0.22853255 3.4463334 0.69600868
-0.15170527 3.4635222 0.69959641
-3.1302838 3.6553962 0.69472444
-3.1834841 3.6631134 0.69250107
-6.4472237 3.6758583 0.69856834
-3.5968547 3.7042542 0.69867539
-0.32301307 3.750195 0.6979748
-0.81227708 3.7627745 0.69872665
6.5283976 3.8210549 0.69698942
2.1736684 3.8373303 0.69747186
6.4836307 3.8548913 0.69220126
-0.44782257 4.0094013 0.69254172
-0.62280703 4.0368705 0.69633228
2.8112569 4.1295948 0.69520533
3.1928298 4.1788754 0.69992924
-0.57621765 4.2931194 0.69264919
5.8252258 4.3523903 0.69739056
2.3118613 4.4418025 0.6906873
5.9723835 4.5177388 0.69195914
-0.94286251 4.5236893 0.69475102
2.340492 4.5207362 0.69725645
2.6647894 4.5223055 0.69046575
-4.0710711 4.5631661 0.69573098
-0.81941056 4.5893703 0.69838363
1.4145544 4.5906591 0.6907028
-4.0876369 4.6096067 0.69591081
3.2696764 4.6063519 0.69284606
3.1190772 4.6122274 0.6967299
5.6787882 4.6120167 0.69605637
1.8124722 4.6858234 0.69063103
5.3470426 4.7006865 0.69329357
3.3000605 4.8128967 0.69158161
1.8861339 4.8595085 0.69958144
-0.044023991 4.8657594 0.69859791
-4.7259154 4.9594555 0.69516867
5.4670372 4.959609 0.69223654
-0.50241852 5.0550065 0.69066656
-8.0154209 5.1101789 0.69785631
5.2052813 5.1918025 0.6989339
-5.2085443 5.2294059 0.69819236
-1.5992408 5.2288632 0.698277
-5.1306572 5.2901173 0.69612825
-1.5694835 5.298964 0.69647819
2.2229338 5.4640665 0.69044471
1.2412432 5.4779277 0.69678926
1.1159711 5.5072842 0.69657815
4.3713732 5.5374408 0.69408643
4.7646694 5.5867586 0.69871861
1.6670542 5.7542114 0.69588453
4.22193 5.7955451 0.69710016
1.3472387 5.8163533 0.69882751
4.1649818 5.8257909 0.69351709
0.78107166 5.8711567 0.69740117
1.6930504 5.945169 0.69090235
1.1579568 5.9794421 0.69163603
4.1371756 6.0806718 0.69240952
3.7121058 6.3390222 0.69342828
-6.3736763 6.4184971 0.69151056
-9.0623646 6.4648004 0.69508779
-2.9262812 6.4958 0.69255805
3.2334423 6.6672845 0.69222218
3.1973691 6.7677383 0.69258678
3.585192 6.7777324 0.69094211
3.2197666 6.820406 0.69971359
-6.6304731 7.0540915 0.69725931
0.0035154819 7.092948 0.69116259
2.6970258 7.1492004 0.69283766
3.1978271 7.19349 0.69184375
-6.7204947 7.2530284 0.69715643
2.2229338 7.252604 0.69044471
2.8127599 7.2518024 0.69900239
2.8476074 7.3268099 0.69017297
2.6467087 7.8074832 0.69689584
-1.0387564 7.9645495 0.69351935
2.3426049 8.0693989 0.69223034
-0.92484879 8.1468611 0.69796944
-8.181941 8.2982988 0.69123161
1.7123462 8.3046293 0.69034183
-8.0130482 8.3253269 0.69015563
-8.7255936 8.6971273 0.69793797
0.071086407 10.156027 0.69284916
0.1798346 10.358597 0.69383681
-0.11962318 10.702843 0.6927647
-6.4281006 10.88555 0.69289136
-0.74901295 11.055243 0.69415271
-4.3857841 11.686646 0.69690764
-5.5160909 11.869576 0.69367832
-1.664556 12.16206 0.69591039
-5.1366253 12.329027 0.69248521
-4.5957747 13.336385 0.69620037
8.8281069 -12.177093 0.70625705
8.2452431 -11.450518 0.70710546
8.7311764 -11.309559 0.70509708
7.7684155 -11.180772 0.70524913
9.5326862 -11.064406 0.70707738
10.106912 -11.051397 0.70897043
9.9224052 -11.022266 0.70894074
7.6584034 -10.99521 0.70790917
9.1911354 -10.588184 0.701298
10.982098 -10.491899 0.70207894
9.4309902 -10.435112 0.70879555
10.274666 -10.228825 0.70667791
6.2628345 -9.6148911 0.70424294
10.240013 -9.6127186 0.70779657
8.5733433 -9.5463657 0.70010096
10.854485 -9.4917202 0.70949197
10.216833 -9.4348221 0.70874262
8.1243954 -9.2511978 0.70333779
10.037425 -8.8193274 0.70548463
7.2903223 -8.4556189 0.70954549
7.4019113 -8.2405815 0.70571494
5.0752192 -8.1993961 0.70752621
5.2257013 -8.1935415 0.70163792
4.8807912 -8.1449041 0.70486891
4.9283862 -8.0363903 0.70396453
6.658186 -8.0068493 0.70722294
7.0436935 -7.9767509 0.70543456
4.1261439 -7.700851 0.70735049
4.1862268 -7.5632381 0.70287907
7.2247057 -6.9378171 0.70007557
7.9234495 -6.8961196 0.70935452
8.074913 -6.8545623 0.70153177
3.8391373 -6.6696167 0.70582175
5.3246031 -6.6667595 0.70174336
3.6896777 -6.6540489 0.70779371
5.7577686 -6.6138272 0.70631069
3.3785818 -6.5558605 0.70842326
13.456439 -6.5059347 0.70930207
13.037361 -6.4367166 0.70143127
3.1502755 -6.391427 0.70583451
14.931498 -6.3709006 0.70019639
7.8140206 -6.366529 0.70045245
7.1983089 -6.3328238 0.7015298
2.6951013 -6.1761913 0.70779705
15.36902 -6.1660824 0.70977032
15.222708 -6.1184449 0.70924473
3.0364451 -6.024404 0.70946753
5.7394476 -6.023942 0.70780462
13.022877 -5.9172521 0.70001042
2.5222588 -5.8267612 0.70673364
4.496253 -5.7899146 0.70814872
2.2337806 -5.7554579 0.70291173
2.667711 -5.674262 0.70500815
2.314306 -5.5567803 0.70384806
5.1743994 -5.4746351 0.70342779
5.7219124 -5.4406924 0.70907515
6.269948 -5.3996725 0.70453346
14.383879 -5.3503399 0.7099247
6.469789 -5.2618527 0.70784569
2.6517897 -5.2439976 0.70517409
3.0511026 -5.1175966 0.70386446
1.8611085 -5.0489607 0.70802021
3.6765344 -4.9615169 0.70807695
15.160126 -4.9590521 0.70974565
5.1410351 -4.7321181 0.70601994
2.149266 -4.5697579 0.7082594
6.8471985 -4.5520272 0.70889246
2.507 -4.5434489 0.70258641
3.1904743 -4.5268645 0.70173132
3.1907279 -4.4659338 0.70333254
3.366075 -4.363575 0.70203465
14.369959 -4.3440466 0.70141858
1.363353 -4.2876263 0.7007941
7.3982687 -4.2538705 0.70580959
2.0869536 -4.1557784 0.7068637
0.54506278 -4.0872364 0.70309025
7.289012 -4.073843 0.70152736
5.1673937 -4.0397797 0.70939845
5.1082954 -4.0036077 0.70856088
0.58246553 -3.7524981 0.70668721
0.27369475 -3.6559043 0.70715481
0.90745616 -3.6246567 0.70293748
1.3796586 -3.6056688 0.70577639
4.6605635 -3.609865 0.70283842
6.8285685 -3.5925183 0.70933068
0.72466874 -3.4116049 0.70909905
-0.24072409 -3.3973069 0.70900357
4.7631974 -3.3922663 0.70621324
6.6294832 -3.3790674 0.70172632
1.1964269 -3.3124247 0.7032094
0.20377445 -3.2965791 0.70416272
0.39104986 -3.2996802 0.70517576
0.15932465 -3.2851341 0.70748782
0.88838196 -3.2616971 0.70557052
-0.28071094 -3.2425561 0.70281494
2.3805418 -3.2132447 0.70192236
13.387178 -3.1777339 0.70097601
-0.29358077 -3.1317708 0.70211399
1.9111853 -3.1321967 0.70261139
6.760468 -3.131773 0.70211273
3.9963558 -2.9736707 0.70207763
1.9814596 -2.9631186 0.70452297
-0.19827938 -2.9235773 0.70173478
10.090159 -2.9248626 0.70955443
5.4826889 -2.8595757 0.70722365
9.8605785 -2.7908502 0.70682895
5.194787 -2.766552 0.70950282
12.873888 -2.7222748 0.70185125
2.6593986 -2.6188817 0.70008057
1.6015775 -2.6041124 0.70181113
1.6373656 -2.6043432 0.70613539
5.3943672 -2.6077452 0.70834917
2.3835301 -2.5754139 0.70418978
3.1418173 -2.5464942 0.70193362
5.553473 -2.5045176 0.7068826
5.5176868 -2.4909487 0.70310152
5.1203046 -2.4257765 0.70629454
-0.88891482 -2.3854468 0.70936614
5.0475373 -2.3641508 0.7046591
-0.74341106 -2.3357997 0.70491385
1.4359463 -2.3339 0.7098273
8.8795662 -2.2691035 0.70280015
3.2545438 -2.2552071 0.70971894
5.9720893 -2.2335706 0.70921731
3.1922059 -2.2272639 0.70093894
6.0856609 -2.2210808 0.7052713
2.1340199 -2.2149591 0.70265901
4.8574867 -2.147877 0.70869768
11.878012 -2.132165 0.70185852
12.078489 -2.1319723 0.70150316
4.7583337 -2.0941839 0.70933169
5.4788938 -1.9592305 0.70583582
2.3866568 -1.9478792 0.70628333
5.1339531 -1.9166896 0.70766544
-1.4206784 -1.8789442 0.70118368
4.9856625 -1.8681501 0.70283306
8.2700701 -1.8670658 0.70816714
3.1548414 -1.8400173 0.70190465
5.6542077 -1.8451562 0.70276672
2.6636176 -1.8282223 0.70334184
5.7934589 -1.8100379 0.70803356
2.8897643 -1.8005325 0.7092855
-1.4427464 -1.7912252 0.70919758
4.5517778 -1.7822922 0.70981133
5.4861536 -1.7865807 0.70581096
6.2523298 -1.7687073 0.70145911
2.7576063 -1.7243028 0.70863295
5.0126829 -1.7030737 0.70958233
2.7582643 -1.6852596 0.70750988
3.0144606 -1.6860263 0.70120561
5.2758431 -1.6723866 0.70894599
4.4249401 -1.5581884 0.70574486
4.0874152 -1.5365899 0.70030338
-1.587827 -1.5298382 0.70323187
-2.1340678 -1.4515717 0.70497614
8.0675812 -1.4443089 0.70586002
4.6645346 -1.2144554 0.70139378
-2.2107148 -1.1784601 0.7004416
8.1564417 -1.1742219 0.70119631
-2.1999083 -0.99263775 0.70082688
5.450933 -0.9898777 0.70292604
3.8752561 -0.95884722 0.70858181
3.3738537 -0.83505666 0.70600587
3.6723378 -0.81860149 0.70883012
6.9614735 -0.80714995 0.7054708
-2.4330778 -0.79581511 0.70214921
3.1171212 -0.79581511 0.70611012
3.348768 -0.79581511 0.70549303
7.0834374 -0.79581511 0.70217156
3.2334425 -0.68144667 0.70322335
7.4531012 -0.6889776 0.70024669
8.1626129 -0.66077656 0.70842785
10.422546 -0.5809415 0.70040119
-2.2219341 -0.53604901 0.70452702
6.9276762 -0.52306867 0.70443982
3.6733341 -0.45698789 0.70515537
-2.8675652 -0.44405079 0.70580399
-2.1803505 -0.41916287 0.70921838
4.1356878 -0.3898766 0.70026553
7.5289135 -0.31987131 0.70412362
6.9113312 -0.27616197 0.70315695
-1.920929 -0.26838282 0.70101351
7.1696892 -0.26352018 0.70875931
-1.6358094 -0.25695932 0.70709801
4.0831385 -0.2590754 0.70937991
6.2368689 -0.16820273 0.70012826
4.3160772 -0.10138136 0.70050669
6.2307854 -0.046770751 0.70848155
6.7965231 -0.04865358 0.70602059
4.6269479 0.0060279369 0.7015574
-3.0354898 0.047190562 0.70514035
4.1710606 0.048029125 0.70438844
4.2214298 0.071539402 0.70802903
9.8891716 0.12165141 0.70869249
6.1073484 0.1597392 0.7001394
-3.5281768 0.2023952 0.70869714
-2.5972209 0.30384338 0.70725906
-3.3804479 0.31146038 0.70041996
-3.259165 0.32782423 0.70855844
-3.2848184 0.39030313 0.70505321
-3.1323376 0.39468956 0.70815182
6.3137445 0.46011996 0.70089692
6.9479895 0.46483827 0.70494795
6.2865372 0.47945678 0.70496452
-3.4138668 0.50781238 0.70956886
9.8900242 0.53550118 0.70225012
-3.7255392 0.54336905 0.70149785
-3.627269 0.54719746 0.70664132
5.909266 0.58110356 0.70676219
8.6325598 0.62774706 0.70170581
5.7238226 0.6621334 0.70257503
-0.7011447 0.70264423 0.7043364
6.1581569 0.72890174 0.70382518
9.1661844 0.73996574 0.70555353
4.8868213 0.79284585 0.70124733
6.3638287 0.83429098 0.70581627
-0.74393225 0.85171688 0.70970082
5.4217296 0.85768306 0.70155025
7.0834374 0.86967874 0.70217156
8.6263762 1.0393658 0.70167124
-1.1270514 1.0535753 0.70149589
5.9749508 1.0932685 0.70673156
8.5450134 1.1038213 0.70587951
-0.49758697 1.1120687 0.70049584
5.663703 1.2166566 0.70942605
-0.26124239 1.2510196 0.70901597
-3.9320929 1.269277 0.70066071
5.3633099 1.2708887 0.7075603
6.3134775 1.2974218 0.70081192
-0.47106194 1.3076499 0.70343757
-4.4260864 1.3219072 0.70155585
-0.90854669 1.333143 0.70789778
8.0688257 1.4033886 0.70249748
8.5087118 1.4240773 0.70084965
8.7061758 1.4305053 0.70776349
-3.9153643 1.4403092 0.70665753
-0.37373185 1.550449 0.70064533
7.9283295 1.5607531 0.70778531
-3.4760284 1.5737247 0.70041245
-0.92770815 1.5801303 0.70926952
-4.8283629 1.6523138 0.70299292
-4.5565 1.7070365 0.70044982
8.1013641 1.7225068 0.70227969
5.9345779 1.7618115 0.70630109
7.5034533 1.7725195 0.70333469
5.7811012 1.7845536 0.70338559
-4.8350115 1.9160013 0.70414281
-0.93657494 2.052238 0.70403361
-1.7602437 2.0661876 0.70306551
8.2689314 2.0682149 0.70394188
0.5868746 2.1611366 0.70811653
-1.0736246 2.1958637 0.70909441
-1.9326544 2.2482448 0.70675474
7.5190711 2.2615805 0.70918751
-2.3403938 2.2769637 0.70839572
-2.1287634 2.3183846 0.7008639
-5.0596724 2.3372591 0.70621735
-1.8211482 2.3476665 0.70534378
-2.6950617 2.3660522 0.70655745
-2.1385124 2.433259 0.70754611
0.70459366 2.4875906 0.70657969
-1.4553595 2.4976976 0.70741826
7.21735 2.4987926 0.70752174
-5.6851101 2.5079811 0.70679748
-1.3009167 2.5657072 0.70291209
6.8477106 2.5716002 0.70799237
6.9988375 2.5780256 0.7034936
1.3215201 2.6284366 0.70311308
-2.529115 2.6487074 0.70125437
-5.3381362 2.6845889 0.70924687
0.013051033 2.6845613 0.70269501
0.66217518 2.6865764 0.7055701
0.49477124 2.6990123 0.7054019
6.7119823 2.696831 0.70098615
-3.2809825 2.7302165 0.70971155
1.4103003 2.8008535 0.70503014
7.1990423 2.8040996 0.70399511
-2.7793021 2.8246613 0.70948869
0.24566841 2.8404443 0.70094275
7.1408501 2.8525498 0.70880109
1.4518561 2.8640523 0.70079947
-6.0885277 2.8827686 0.70822036
-3.543932 2.9356933 0.70341897
0.67726898 2.9784749 0.70939296
0.5868746 3.00598 0.70811653
0.010734558 3.035737 0.70384562
-2.5873125 3.114229 0.70296353
-0.092721939 3.1139946 0.70311862
0.85839891 3.1101751 0.70864403
-5.8939714 3.1241353 0.70290434
6.9197507 3.1202569 0.70531499
-0.62481594 3.1384301 0.7056517
0.9525001 3.150465 0.70233351
-3.249918 3.2645521 0.7094425
-6.3706737 3.2889695 0.70098698
0.044476271 3.3336606 0.70068824
6.5683937 3.3987417 0.70485592
-2.8461361 3.4319515 0.7081238
-3.1622231 3.4592962 0.70501941
6.7983198 3.4598546 0.70648998
-3.2971978 3.6571102 0.7060836
-3.7213035 3.7088027 0.70442224
6.5137649 3.7050211 0.7027905
-0.69902587 3.7562876 0.70146966
6.777668 3.8000124 0.70718718
2.2878921 3.8261352 0.70583332
-6.6197138 3.8523571 0.70660931
-3.334893 3.8550837 0.70477349
2.1867914 3.8862264 0.70557904
6.0245256 4.0127439 0.70803344
2.609118 4.0430784 0.70864439
6.092895 4.0583448 0.70050919
2.8028448 4.0753336 0.70365804
2.2564011 4.0871549 0.70697892
2.726125 4.0942278 0.70807594
-3.7914317 4.1489954 0.70543432
-0.48016858 4.182559 0.70068681
-3.8417184 4.2640324 0.70632017
-4.2746449 4.3961415 0.7028091
5.9464598 4.4365249 0.70775855
-0.91738248 4.4495893 0.70714527
2.7958837 4.5262527 0.70300829
-4.0634413 4.5796752 0.70502836
3.371243 4.5719471 0.70954162
5.4143767 4.8082047 0.70363045
-4.4171238 4.8355269 0.70620185
-5.3925419 4.8818202 0.70008731
1.8514538 4.8861284 0.70274007
-4.6038046 4.963563 0.70933092
1.662236 4.9880571 0.70399326
-1.7788827 5.07336 0.70857906
1.777649 5.104743 0.70934951
1.9087665 5.1001415 0.70327681
-5.5911751 5.2250919 0.70868582
1.7068777 5.2733173 0.708893
-1.5428665 5.4278145 0.70149338
4.3325281 5.4931011 0.70206684
1.5444363 5.5517206 0.70383394
3.9228954 5.6685047 0.70700872
4.413074 5.666913 0.70465469
2.0712948 5.6962156 0.70639861
1.2113373 5.7642012 0.70991284
1.8720884 5.7767329 0.70827222
4.630487 5.7949996 0.70163679
3.7027159 5.8104534 0.70187795
1.9750881 6.1290054 0.70212257
-8.7855549 6.1330605 0.70965934
1.8740766 6.2165513 0.70791423
-2.9291587 6.4034162 0.70758176
-3.0677648 6.8151808 0.70581973
3.6852005 6.8107843 0.70661509
3.0961685 6.8218265 0.70440185
-6.3971076 6.8585405 0.70995903
0.36171436 6.8796039 0.70050466
3.247457 6.9205837 0.70133626
-0.079587221 6.9694338 0.70198917
2.279974 7.0093923 0.70040917
2.7567055 7.0096231 0.70011854
2.703618 7.0116968 0.70771402
3.0468981 7.03159 0.70546877
2.5243373 7.0937109 0.70603061
3.1601815 7.0945272 0.70424575
3.2334404 7.3068552 0.70483786
-9.999218 7.336051 0.70734251
2.5639136 7.4664602 0.70856559
3.1572428 7.4904113 0.70705068
-0.841892 7.7333941 0.7021336
-1.3413363 8.833993 0.70995331
-1.6784191 8.9170389 0.70553493
1.3863534 9.0003796 0.7002542
-2.2629495 9.1690035 0.70866674
0.99308991 9.2423763 0.70204902
1.2329459 9.2828856 0.70789301
-1.6926131 9.3803396 0.70510322
-2.6161008 9.4764462 0.70308757
0.53826356 9.6745481 0.70193231
0.41297698 10.060296 0.70871663
-0.093233585 10.644473 0.7072084
-0.73853087 11.328681 0.70997632
-6.1380663 12.363687 0.70851648
8.4964609 -11.565828 0.71044469
8.4956331 -11.478591 0.71635783
8.5720196 -11.199574 0.71169531
10.111899 -11.082534 0.711972
7.5137415 -11.038876 0.71041715
10.789671 -10.741745 0.7150358
10.567789 -10.735607 0.71324682
9.5098305 -10.727108 0.71538496
7.1681376 -10.609221 0.71767521
10.593506 -10.568588 0.71711385
10.958408 -10.537043 0.71029031
9.5625839 -10.459779 0.71286219
9.8738861 -10.314249 0.71075416
9.3813076 -10.276396 0.7144087
9.2961597 -10.116781 0.7120558
9.2186947 -10.004884 0.71258473
11.102795 -10.007963 0.71354806
11.021602 -9.9707966 0.71690178
10.486465 -9.9229889 0.71045613
9.1481562 -9.8288593 0.71315295
9.4002323 -9.8226204 0.71011066
8.8978043 -9.7853918 0.71097982
8.4964123 -9.7284021 0.71516275
8.5731239 -9.6998768 0.71464038
11.108723 -9.6362171 0.7122854
9.8260536 -9.6161222 0.71253943
8.7031374 -9.599391 0.71455598
10.622771 -9.5993204 0.71599555
8.5475512 -9.4266052 0.7132473
11.060183 -9.3669987 0.71230948
5.8067803 -9.3398933 0.71379048
9.1757526 -9.3141327 0.71434665
9.1260309 -9.2745113 0.71387082
9.3700466 -9.2160149 0.71120119
6.2626286 -9.1187725 0.71301174
8.5349436 -9.0163708 0.71637225
9.9637794 -8.9705772 0.71198207
10.130127 -8.9518414 0.7131893
9.7788849 -8.9276752 0.7143023
7.5865006 -8.8650284 0.71599531
5.2674179 -8.830904 0.71986067
8.5216331 -8.8292217 0.71430826
7.9036131 -8.7230148 0.71836877
9.1040258 -8.723217 0.71458191
9.1332121 -8.6326256 0.71632791
9.3398533 -8.6147833 0.71249294
9.4861832 -8.5394363 0.71674275
12.942501 -8.4861212 0.71952873
12.844267 -8.479557 0.71292043
7.6934223 -8.4515572 0.71755028
8.497097 -8.3419418 0.71832681
8.4956656 -8.2370615 0.71557236
9.0821409 -8.1749525 0.71528703
6.778347 -8.0849962 0.71971774
7.6714911 -7.8682151 0.71878481
6.9372005 -7.840713 0.71479225
9.1507454 -7.8437319 0.71095777
8.9566288 -7.8045673 0.71927339
6.6479635 -7.7993093 0.7194196
8.4601431 -7.6771836 0.71976829
8.4699326 -7.6502695 0.7168231
4.6104016 -7.5725594 0.71928877
13.180672 -7.479176 0.71335447
7.6500301 -7.2902951 0.71979737
8.2802086 -7.2428632 0.71538043
4.1444349 -7.1443701 0.71927172
8.4093456 -6.932981 0.71920931
14.588079 -6.7717915 0.71220183
3.8075657 -6.750906 0.71603703
14.425488 -6.7578273 0.71310174
14.477439 -6.7438498 0.71665609
5.5378904 -6.6789794 0.71656084
13.722555 -6.621489 0.71133006
3.4881272 -6.5862083 0.71212721
5.472537 -6.5707865 0.71575707
13.376759 -6.5397396 0.71462107
7.688899 -6.5037489 0.71807361
13.355914 -6.4259548 0.71927404
14.006348 -6.3806229 0.71831954
13.789969 -6.3483729 0.71573907
5.2197051 -6.2730217 0.71402091
13.877268 -6.2414999 0.71429157
13.540606 -6.2092566 0.71308172
7.671134 -6.1627765 0.71927387
3.0785186 -6.1341491 0.71890038
14.757977 -6.1145511 0.71572495
3.2851913 -6.090167 0.71553278
13.073391 -6.0346484 0.71141255
4.686101 -6.0223227 0.71266544
7.0984282 -6.008832 0.71592003
2.3917642 -5.7952828 0.71869147
6.7303619 -5.5235124 0.71008015
11.835481 -5.4461374 0.71960711
2.6641583 -5.4190392 0.71510983
6.5505466 -5.4102626 0.71171373
12.351358 -5.3538914 0.71405041
6.4068727 -5.2511353 0.71242929
15.120382 -5.2058988 0.71263695
4.3347754 -5.1596737 0.71501476
14.984324 -5.089571 0.71499288
6.3042822 -5.0448503 0.71467876
7.0794249 -4.972332 0.71899045
5.7045574 -4.8635559 0.71032935
2.243212 -4.8507223 0.71656442
15.185156 -4.8500142 0.710361
2.0023785 -4.6007752 0.71562564
4.3246322 -4.5963454 0.71631598
1.5117846 -4.5568824 0.71980774
5.5277333 -4.5212688 0.71590877
14.439613 -4.4346509 0.71567643
14.472631 -4.4195399 0.71011424
1.6990051 -4.3452263 0.71890092
1.26103 -4.3294373 0.71574128
1.2473372 -4.2779331 0.71264982
3.1398702 -4.2706814 0.7147994
5.4619474 -4.2354655 0.71384144
11.204802 -4.2153935 0.71844125
2.8747463 -4.1812811 0.71256924
2.8145843 -4.1779408 0.71808755
4.8921652 -4.092217 0.71405816
4.3148699 -4.038959 0.71750015
1.3382941 -4.0205135 0.71875751
6.6355715 -3.919394 0.7151382
10.434322 -3.9168372 0.71082664
1.9017692 -3.903054 0.71663892
1.2878397 -3.7641883 0.71932942
2.41539 -3.7648716 0.71388203
2.8550229 -3.6744888 0.71687841
5.0136003 -3.5887828 0.71581709
7.1684237 -3.515842 0.7103498
4.304657 -3.4868643 0.7188763
0.26070881 -3.3821063 0.71354151
0.46841931 -3.3320839 0.71859252
4.3622732 -3.2552032 0.71748066
10.178474 -3.2592547 0.71156633
2.2671344 -3.2429247 0.71112108
1.0305843 -3.2064009 0.71800363
-0.28876758 -3.1944835 0.7152909
0.99395561 -3.1464884 0.71685451
5.8236275 -3.1412249 0.71554673
6.3545198 -3.1218541 0.71575111
6.4043932 -3.0310626 0.71349829
2.8442969 -2.9846261 0.71921813
9.503438 -2.922559 0.71119273
-0.66825151 -2.8856716 0.71724916
9.8730841 -2.7729867 0.7141763
-0.16976595 -2.7570615 0.71125787
6.5316339 -2.7573385 0.7149632
9.8623629 -2.7483344 0.71959126
4.1444921 -2.7128148 0.71025103
-0.53303623 -2.6889532 0.71151775
-0.26552057 -2.6803465 0.71919018
5.4558115 -2.6613123 0.71540082
4.953599 -2.6012788 0.71906471
12.915544 -2.5476146 0.71435088
9.2644691 -2.5314546 0.71021819
-0.97480822 -2.5130382 0.71713889
5.0900259 -2.5159423 0.71751451
-0.74027324 -2.4434748 0.71092027
5.4224749 -2.4275236 0.71645343
5.8464975 -2.2346711 0.7198779
3.4007902 -2.1994061 0.71977895
5.45121 -2.1447375 0.71883571
12.484008 -2.1379704 0.71433288
5.6195884 -2.0657742 0.71671754
-0.84690714 -2.0336246 0.71619552
3.0823274 -1.9901221 0.71681798
4.5856686 -1.80729 0.71807331
5.0725203 -1.8011253 0.71388316
6.3886337 -1.8072926 0.7180748
-1.0858541 -1.7766607 0.71999729
3.072597 -1.7611892 0.71645617
-1.4364538 -1.7184314 0.7145654
3.0666211 -1.6621733 0.71951061
4.5577383 -1.5740401 0.71542835
3.8725159 -1.5672076 0.71111441
2.6555226 -1.467939 0.71445662
-1.9142134 -1.4086502 0.71160823
-2.3151286 -1.2811497 0.71050698
4.5195827 -1.2392139 0.71878093
-2.2046998 -1.2151518 0.71849549
-1.9923253 -1.1978267 0.71724766
11.606426 -1.1990784 0.7185508
-2.2714305 -1.0709486 0.71338761
-2.3775418 -1.0328832 0.71382141
8.2154713 -1.0083463 0.71846288
10.846331 -0.95183074 0.71598589
5.4559889 -0.93028873 0.71535414
7.2340059 -0.93001366 0.71518815
7.4380674 -0.93393171 0.71957839
-2.309324 -0.92686093 0.71828526
3.2865012 -0.86760712 0.71758735
4.3428907 -0.86865622 0.71133089
3.3250425 -0.85411286 0.71309751
3.0769484 -0.83955145 0.71422994
11.222626 -0.79581505 0.71088493
10.756824 -0.77263045 0.71000832
7.2452769 -0.70393801 0.71632463
-1.7384334 -0.59976304 0.71384525
-1.7565742 -0.5171113 0.71425068
3.8092556 -0.51843691 0.71134496
-2.3904095 -0.47142869 0.71592826
7.8407083 -0.3656857 0.71772027
4.3209748 -0.32087404 0.71700299
10.296365 -0.31098634 0.71007186
-2.9791846 -0.26774788 0.7197454
7.1865759 -0.1431191 0.71591216
7.1909733 -0.11116935 0.71444547
6.9263649 -0.087054759 0.71634692
6.6969299 -0.073261619 0.71979129
4.55864 -0.012747794 0.71024168
9.8714304 -0.0032769442 0.71925139
4.4388366 0.071915686 0.71919644
10.281293 0.070723295 0.71625769
-3.0620766 0.08512187 0.71562409
9.8382292 0.14832783 0.71013224
-3.1215353 0.17942846 0.71925938
10.20626 0.2003926 0.71947998
6.8228407 0.22287387 0.71597928
7.314229 0.28676176 0.71621054
-3.150754 0.34418201 0.71896917
-2.8448844 0.36147439 0.71767473
6.434804 0.38339871 0.71661854
-0.99337506 0.50033259 0.71506077
6.3974476 0.51561129 0.71792364
-3.9515541 0.54528832 0.71690416
5.7434454 0.56775934 0.71356481
6.4071913 0.57242787 0.71917343
9.3823643 0.60541427 0.71049321
5.3383775 0.63619494 0.71205604
-3.4452834 0.69340432 0.71797776
9.2831726 0.7117157 0.71292841
7.1263971 0.75266093 0.71029431
8.8565998 0.75266176 0.71029377
-0.78780842 0.77714396 0.71888119
8.8962526 0.80185032 0.71162671
-3.9994543 0.82986766 0.71216297
-0.37369728 0.8424629 0.71206272
-3.8926091 0.89743567 0.71523678
5.0070152 0.89011121 0.71687448
8.9869251 0.97448736 0.71061504
5.6443763 1.0272943 0.71253562
5.3802834 1.053138 0.7118271
8.9288244 1.0601205 0.71055353
-1.8164945 1.1309136 0.71228659
-0.23127317 1.146975 0.71189207
-0.18721008 1.1564612 0.71186936
-0.41655445 1.1885388 0.71065664
9.0436544 1.1971815 0.71249866
-3.9145882 1.204324 0.71295625
5.8330088 1.248641 0.71333069
-1.9209137 1.3344238 0.71718097
-0.032560587 1.4260038 0.71081579
8.796566 1.4471428 0.71236223
8.6358891 1.4527749 0.71905601
8.4966764 1.4638022 0.71186805
5.7813129 1.6382917 0.71999115
8.7308302 1.741387 0.71336377
-1.1416724 1.887609 0.71361637
7.5817881 1.8916104 0.71339953
-1.5616 1.9628696 0.71127039
7.5925703 1.9628694 0.71126926
-1.8205085 1.9752473 0.71849871
0.69398284 2.0345507 0.71443695
-1.7324142 2.0990582 0.71628416
-1.9774084 2.1343155 0.71496415
8.0466442 2.1648555 0.71101588
-1.646322 2.1862113 0.71764088
7.9106059 2.2036591 0.71124226
0.7553606 2.2366602 0.71991765
7.0211039 2.2804396 0.71355546
7.4471254 2.3321972 0.71539116
-5.3916931 2.3921938 0.7133823
6.996356 2.3998296 0.71494031
-2.1429696 2.4146457 0.712538
7.1468635 2.4108632 0.71162599
-2.1951175 2.4917078 0.71759379
-2.1071701 2.5907321 0.71197152
-4.8505116 2.6513116 0.71156853
1.0139854 2.7553153 0.71663916
-2.7397442 2.7963991 0.71300238
6.9969368 2.8068295 0.71368825
0.54359996 2.8155661 0.71980721
1.3844702 2.8656604 0.71020395
1.4245791 2.9706562 0.71641284
-6.121695 3.0535274 0.71889508
-5.9906473 3.0582399 0.71427494
-0.18637848 3.0524645 0.71804726
0.54262269 3.068469 0.7139166
-0.054665565 3.0936346 0.71099287
0.71262074 3.1034908 0.71480978
-0.61274934 3.1199775 0.71134174
1.3906132 3.1242182 0.71589959
7.1786165 3.2214768 0.71452665
7.1914697 3.3247042 0.71614683
-6.0730019 3.4121532 0.71782595
6.7443428 3.4518819 0.71070647
7.1726522 3.4735379 0.71678281
-0.62769628 3.6437168 0.71039701
6.6034274 3.6894855 0.71220326
-0.1406219 3.6936355 0.71121293
-6.5872889 3.720459 0.71447712
0.042954206 3.7864416 0.7151978
-6.3500566 3.8356621 0.71437484
6.5186071 3.8425829 0.71319002
-0.056049347 3.8688483 0.7110188
-0.54815888 3.956619 0.71091753
-0.30901194 4.0174475 0.71598393
3.0158675 4.1759949 0.7173214
-6.6241283 4.1865363 0.71368724
-4.0797319 4.197566 0.71427649
6.0040398 4.1989365 0.71618283
2.7480788 4.2106056 0.71248996
-3.5980477 4.2331843 0.71246564
2.352602 4.2371573 0.71565783
2.7387905 4.2315784 0.71398747
6.3145361 4.2662859 0.71361357
2.8811369 4.2753377 0.71117139
3.0897303 4.3225508 0.71277428
6.1740456 4.3310862 0.71418244
-0.063717365 4.3713231 0.71136498
3.1897995 4.6506829 0.71061784
-5.0736704 4.7265568 0.71282327
5.6930747 4.8004913 0.7188614
-1.4760828 4.8784657 0.71997821
-1.0758862 4.9037819 0.71963149
-4.5178261 4.9687953 0.71754342
-1.1266463 4.9687996 0.71754605
-1.451432 5.0085983 0.71031785
-1.013006 5.0286274 0.71213758
5.4844542 5.0239382 0.71584636
5.3219614 5.0760818 0.71433592
-1.6648974 5.0974913 0.71692741
2.0375867 5.1333585 0.71893239
-1.2070212 5.2190132 0.71525908
-4.8096266 5.2251272 0.7124958
1.8132024 5.2472525 0.71344346
-4.775485 5.2788615 0.71050054
-0.71204662 5.2759399 0.71313971
-2.109592 5.3444371 0.71615934
4.5875368 5.4488473 0.71641135
-1.584343 5.4906678 0.71864063
0.52703094 5.5835361 0.71995497
0.92792594 5.607718 0.71335483
1.6827536 5.6019101 0.71483362
1.7954445 5.6293006 0.71633399
4.4210711 5.6409807 0.71497989
5.0236702 5.67419 0.71541715
4.7230606 5.7373796 0.71800882
1.380965 5.7702017 0.71283484
-5.4753809 5.8861189 0.71008062
4.0620975 5.9713006 0.71815622
1.1973412 6.1242638 0.71714222
1.3833425 6.2120547 0.7127828
3.8645754 6.216928 0.71312881
0.53888297 6.3255033 0.71082616
3.7469523 6.3674984 0.71652782
0.72928381 6.4340892 0.71342361
0.32335663 6.5343833 0.71118462
0.49751925 6.6352377 0.71537071
2.6810656 6.6620412 0.71050835
0.40818596 6.7453184 0.71771324
3.1042085 6.7601247 0.71408856
3.284796 6.79391 0.71490669
-0.16342473 6.9995399 0.71142685
0.23769593 7.0641007 0.71154076
2.8583479 7.1899834 0.71614981
-0.27400041 7.2076883 0.71778327
0.031126738 7.2941208 0.71674073
-0.034379005 7.3152666 0.71871936
2.8802323 7.3510942 0.71136957
-3.7519116 7.3734827 0.71039307
-0.65161848 7.466558 0.71108925
2.7513676 7.4823503 0.71768063
2.5158389 7.6520395 0.71326053
-3.9558611 7.6940708 0.71058893
-7.3005142 7.765481 0.71068966
2.716753 7.8045917 0.71348488
2.0230947 8.3144541 0.71763492
-1.5999546 8.5586605 0.71386224
-1.2066321 8.6250296 0.71220565
-1.30615 8.7858658 0.71900892
1.2416945 8.948988 0.71194112
0.74516821 9.4287395 0.71218669
0.96924353 9.6184769 0.71246243
-0.46559596 10.07337 0.71022183
0.076011658 10.191566 0.71396041
-3.851789 11.192803 0.71210265
-5.7629914 12.711664 0.7159456
9.6162882 -11.734258 0.72531372
9.5033398 -11.728951 0.72374368
8.1517963 -11.52419 0.72542596
7.6470928 -10.91662 0.72953117
7.8717594 -10.916357 0.72148162
7.6953535 -10.902893 0.72918266
9.6872358 -10.786994 0.7210198
9.7135239 -10.773207 0.72265458
9.7787495 -10.635581 0.72060776
10.870296 -10.581213 0.72937822
7.1611576 -10.536403 0.72108257
9.3258648 -10.387561 0.72698206
9.7614241 -10.08782 0.7212348
6.9015446 -10.048953 0.72567272
11.237989 -9.729866 0.72859925
9.7441788 -9.5426807 0.72185397
8.0493011 -9.4571924 0.72769749
11.999279 -9.4555578 0.72850502
10.519451 -9.3033962 0.72791064
8.1898994 -9.1359005 0.72957903
8.5149755 -9.1306982 0.72677493
9.7270145 -9.000144 0.72246981
10.250237 -8.961236 0.7274375
7.8570275 -8.9493084 0.72452062
11.621119 -8.8055439 0.72060907
11.301878 -8.6390533 0.7240622
8.5010195 -8.5994196 0.72737122
7.2815514 -8.4339657 0.72033429
9.7214527 -8.4201384 0.72824889
7.4897957 -8.3356342 0.72234499
6.7653503 -8.2278414 0.72443944
9.5614071 -8.1615725 0.72076118
6.903511 -8.1343451 0.725389
8.4871273 -8.0706244 0.7279613
7.870326 -8.0555296 0.72029519
9.2707386 -7.9143701 0.72707582
7.2526999 -7.7732954 0.72223401
12.949884 -7.7585993 0.72773707
12.8009 -7.7214575 0.72702444
9.0314331 -7.672039 0.72236943
8.473299 -7.5442929 0.72854972
6.1681232 -7.5038843 0.72329104
6.8671675 -7.5083303 0.72171474
6.6441898 -7.495398 0.72390628
13.294468 -7.4575438 0.72253561
7.8378592 -7.3975468 0.72171378
6.0442467 -7.2212439 0.72579074
6.0814586 -7.1566973 0.72477794
7.2244158 -7.1217175 0.72386813
6.8492522 -6.9386401 0.72290659
6.6201477 -6.8503447 0.72551918
5.6125069 -6.8298564 0.72289735
7.8058262 -6.7483597 0.7231133
7.6287613 -6.7175202 0.72080421
5.37498 -6.6464243 0.72549129
14.770527 -6.6296663 0.72873747
6.0671883 -6.5952029 0.72594619
6.0243301 -6.5826039 0.72737765
3.7720361 -6.5579486 0.72450638
13.613081 -6.5440755 0.72672135
5.1048088 -6.5075784 0.72087431
7.1968594 -6.4792776 0.72500372
6.8317523 -6.3741541 0.7238903
5.4369626 -6.3186588 0.72921371
13.599979 -6.2925501 0.72940385
5.3034449 -6.2598867 0.7287128
6.59659 -6.2140369 0.72687101
15.336102 -6.2141533 0.72407228
15.018099 -6.1921163 0.7279712
5.3341761 -6.1826062 0.72157276
7.3172588 -6.1782894 0.72450876
14.420643 -6.1507335 0.72996151
15.397299 -6.0911889 0.72550452
7.1564126 -6.0515652 0.72933304
6.0535488 -6.0389647 0.72669911
6.0048389 -5.9525604 0.72871232
6.8141494 -5.8144331 0.72506118
2.6581926 -5.7676873 0.7269851
12.91432 -5.7543221 0.72857559
5.2929945 -5.7113037 0.72964454
2.5404623 -5.6215801 0.7216624
6.5731745 -5.585825 0.72844291
2.7559223 -5.5755134 0.7295838
2.3712873 -5.4848456 0.7231431
6.0395226 -5.4871778 0.72784805
4.4659109 -5.4164691 0.72513622
2.9965038 -5.22263 0.72471738
14.944485 -5.2049952 0.72136235
15.141565 -5.1806641 0.72914267
1.6803789 -5.1084061 0.72105974
15.032324 -5.0663762 0.72672904
2.3679972 -5.0255165 0.72386467
15.061739 -4.9962692 0.72223234
6.0256176 -4.9401555 0.72898579
2.2567441 -4.9178791 0.7294153
2.6680231 -4.7378788 0.72539824
1.5688426 -4.6674042 0.72839445
1.8134317 -4.6572075 0.72738731
14.8539 -4.6109543 0.7204591
1.8218486 -4.5920196 0.72653657
5.4646225 -4.582428 0.72545266
14.239557 -4.5647068 0.72536051
14.567266 -4.5388832 0.72981668
1.9142745 -4.5125079 0.72454739
11.633221 -4.4847894 0.72764158
1.4618549 -4.4625578 0.72530866
14.273584 -4.4358096 0.72833574
1.1354009 -4.3541493 0.72988307
3.1367106 -4.3573437 0.72668022
2.0044456 -4.2601089 0.72988105
0.89656854 -4.2593513 0.72787631
5.3915825 -4.1749911 0.72585928
0.87314558 -4.138906 0.72483182
0.67899203 -4.0965252 0.72748572
5.3428164 -4.0687895 0.72188354
5.3109846 -3.9787025 0.72448599
1.0136397 -3.9035363 0.72495925
3.0005431 -3.7962255 0.72318029
4.9919744 -3.7992439 0.72346616
0.40203261 -3.682735 0.72941256
4.7069044 -3.6843541 0.72904932
7.2914495 -3.6540389 0.72947568
5.8306656 -3.5180719 0.72085071
13.177542 -3.517621 0.72807539
5.7527966 -3.442286 0.72922409
2.2522681 -3.4111238 0.72820485
6.6272373 -3.4153976 0.72839522
0.74062347 -3.3686502 0.72402924
2.9978709 -3.2575147 0.72419798
0.86069965 -3.2026899 0.72736883
0.5570426 -3.1986399 0.72730398
0.98496699 -3.1749878 0.72525209
4.1190724 -3.1715913 0.72671354
-0.16197848 -3.1519842 0.72029382
2.1983776 -3.108716 0.72643328
1.802289 -3.0556531 0.726973
5.489851 -3.0537798 0.72410452
12.888712 -2.9830966 0.72861373
13.034292 -2.8054929 0.72901022
1.9279754 -2.7875447 0.7223891
-0.28964472 -2.7561193 0.72078735
2.9944499 -2.7236059 0.72550666
3.6780131 -2.661859 0.72518909
12.431726 -2.640389 0.72899091
3.7141378 -2.6095786 0.72312862
-0.30214739 -2.5877767 0.72229362
3.9261575 -2.5506492 0.72182858
1.4620879 -2.5116148 0.72750789
5.0557194 -2.3781667 0.7218399
-0.84626865 -2.3512359 0.72422302
2.833766 -2.3071506 0.72151929
4.9857044 -2.2354343 0.72443157
5.4288116 -2.2014198 0.72617894
2.9910598 -2.1949615 0.72679853
-1.1158004 -2.1798961 0.72231865
5.3873744 -2.1738164 0.72166425
9.0895138 -2.1773236 0.7204057
5.0627584 -2.0497856 0.72552943
-1.1346185 -1.9752954 0.72942555
-1.2130587 -1.9544731 0.72242403
3.1767533 -1.7699147 0.72594035
3.2334404 -1.755934 0.72194475
4.9039125 -1.7056417 0.72704166
2.7720933 -1.6731784 0.72892565
2.249655 -1.6675336 0.72984707
5.0700045 -1.6643361 0.72346866
2.823422 -1.641729 0.72377908
8.4420185 -1.6375883 0.72390079
-1.6185069 -1.5806348 0.72076112
-1.7375705 -1.5316305 0.72767544
2.3372154 -1.4987402 0.72339439
4.1695023 -1.4524056 0.72700524
2.6509337 -1.4267006 0.72815567
-1.6725931 -1.4012614 0.72867787
4.136694 -1.3725286 0.72006512
-1.9062076 -1.3337729 0.72484535
-1.6858916 -1.3309968 0.72326946
4.9510064 -1.3167541 0.72710001
11.187531 -1.2355094 0.72991598
5.0380754 -1.1790633 0.72570544
10.893891 -1.1261928 0.72251332
4.6267257 -1.024731 0.72752607
4.3737354 -0.98082137 0.72859061
6.8049626 -0.98111862 0.72304845
3.2878485 -0.93824428 0.72224176
5.3403554 -0.92874759 0.72638857
8.0517263 -0.92231131 0.72334933
6.8734503 -0.83679724 0.72604531
4.2575169 -0.81001306 0.72465879
-2.3166151 -0.80267298 0.72544038
4.5653296 -0.79581505 0.7252785
7.1736755 -0.79581511 0.72207904
-2.1616609 -0.78478932 0.72230351
4.1180096 -0.7371068 0.72920942
4.8520308 -0.52247488 0.72672325
10.355709 -0.50960994 0.72862971
3.7700703 -0.49100482 0.72075278
3.4032195 -0.46375561 0.72701955
3.812624 -0.45139903 0.72428882
-1.7458026 -0.4100039 0.72330761
-2.0358789 -0.38935581 0.72235096
-2.5844202 -0.37687519 0.72309256
-2.514585 -0.37537408 0.7260077
4.1213083 -0.35188136 0.72175944
10.780764 -0.35185483 0.72495615
5.9951186 -0.22734416 0.7278024
6.9726844 -0.19878593 0.72835565
-2.1497817 -0.17097193 0.72454
7.084012 -0.11432594 0.72008497
4.3376923 -0.069801152 0.72229242
-2.2263947 -0.032624424 0.72411025
9.193264 0.1031478 0.72458744
4.5773854 0.13667923 0.72981101
6.7646313 0.14700621 0.72846591
-3.2809138 0.16860983 0.72915012
6.4108772 0.20411503 0.72378731
-3.0795066 0.23468196 0.72933668
6.8684034 0.24089538 0.72777361
10.092312 0.25107837 0.72851056
5.8884277 0.28143561 0.72334808
5.9742212 0.36608472 0.72074288
8.6909389 0.3807416 0.72656304
7.1736755 0.44080663 0.72207904
-0.80941868 0.51262641 0.72093892
-3.3583946 0.55077732 0.72809565
6.9178362 0.63510728 0.72776031
-2.657356 0.68732768 0.72772098
6.9225969 0.73604894 0.72051907
-0.69542837 0.74157608 0.72295117
-2.7928824 0.76002038 0.7235145
-0.88958764 0.79367334 0.72875559
8.7129421 0.87330079 0.72704387
8.2713652 0.93780613 0.72754896
9.4488869 0.98002583 0.7249577
-0.21274233 1.0131438 0.72806966
-3.3701999 1.0474155 0.72845757
-4.1459117 1.1277032 0.72803891
