# .PCD v0.7 - Point Cloud Data file format
VERSION 0.7
FIELDS x y z
SIZE 4 4 4
TYPE F F F
COUNT 1 1 1
WIDTH 1510
HEIGHT 1
VIEWPOINT 0 0 0 1 0 0 0
POINTS 1510
DATA ascii
-1.5119119 4.9802337 0.31189823
-4.3629284 5.028533 0.31518883
-4.9837008 5.0669675 0.31150877
4.1509514 5.423461 0.3148005
1.5942464 5.4405327 0.31643224
0.59770787 5.5389752 0.31572574
-5.1147022 5.587482 0.31334257
2.4098425 5.6250086 0.31599039
1.3886919 5.8033595 0.31079948
1.5784369 5.8452587 0.31714237
4.6603131 5.8659058 0.31643376
-2.4955592 6.0361009 0.31235862
1.6373959 6.050364 0.31183803
1.0861959 6.1637964 0.31039661
-8.9394741 6.3151598 0.31742749
1.3977413 6.3579507 0.31778836
1.6375513 6.488297 0.31211054
-9.3146591 6.5667396 0.31159365
-9.4102087 6.686636 0.3191466
3.3128095 6.8381548 0.31741607
-6.5759888 6.903636 0.31263888
2.76509 7.127337 0.31682485
-0.5427227 7.3098545 0.31104523
1.9269247 7.4526224 0.31542218
2.8140287 7.4878931 0.3116982
-9.9997177 7.603591 0.31534207
1.9183686 7.8391132 0.31304497
-8.3720779 7.8686681 0.31233323
-0.60943675 7.8864856 0.31447375
-7.6867409 7.9532986 0.319345
-9.4595203 8.2818031 0.3176249
-1.7214136 8.8683271 0.31808889
-1.6549168 8.967063 0.31125629
-1.6686056 8.9908514 0.31440514
-9.3453808 9.0980415 0.31781659
-5.7818847 9.8343582 0.31066841
0.35180032 9.990283 0.31312266
-2.9244175 10.050188 0.31551552
-7.1898651 10.231062 0.314592
-6.8152437 10.230139 0.31276551
-3.4436998 10.456006 0.31893456
-0.1356467 10.520048 0.31809518
-0.15668631 10.567943 0.31314981
-0.22136414 10.703627 0.31923166
-4.1723042 11.145691 0.31585968
-3.9670787 11.186232 0.3174623
-4.3831511 11.249111 0.31464052
-0.91628528 11.249273 0.31960517
-0.90886354 11.385221 0.31100827
-0.84394741 11.478025 0.31439197
-3.9364696 11.588232 0.31738552
-4.639945 11.653923 0.31762767
-4.3672523 11.66246 0.31361449
-1.8138354 12.106705 0.31081033
-2.6397939 12.452354 0.31772265
-3.0831144 12.483505 0.31389272
-3.311831 12.765686 0.31552625
-5.4323578 12.798281 0.31770453
-4.7950444 13.190213 0.31642467
-4.8276916 13.309193 0.31600022
-3.8438511 13.626513 0.31552505
-3.8597236 14.140755 0.31214714
-3.7300901 14.292657 0.31771836
-4.1110506 14.368301 0.31690645
8.7829218 -12.186522 0.32224584
9.4338179 -11.799607 0.32923377
9.6911001 -11.671213 0.3235139
9.1791334 -11.110061 0.32715082
8.1967249 -10.865566 0.3223733
6.5813055 -10.015512 0.32311186
8.7824402 -9.8747272 0.32942581
8.8429155 -9.0476637 0.32891989
8.4262218 -8.4954357 0.32743707
8.3812943 -8.290103 0.32852834
7.9962616 -7.9747815 0.32540119
13.41879 -6.6766043 0.323116
14.213883 -6.3753004 0.32628095
14.964594 -5.5739603 0.32281536
5.7270966 -5.5027103 0.32607299
3.1091573 -5.4733791 0.32102865
2.6923106 -4.9807448 0.32759738
3.666012 -4.6143904 0.32932091
1.6475471 -4.4612131 0.32899153
4.0427861 -4.4353271 0.32059294
4.1469517 -4.1582265 0.32886159
0.4062717 -3.6528525 0.32190457
4.2206097 -3.6335304 0.32899046
0.58080292 -3.6108871 0.32488596
1.4620929 -3.6108871 0.3248859
3.1579247 -3.5572176 0.32042363
5.5688529 -3.3937056 0.32643563
2.6726718 -3.2905197 0.32863599
-0.085733533 -3.2124145 0.32830065
1.0214477 -3.1702414 0.32488805
1.1518707 -3.157691 0.32398975
-0.38677895 -3.0324111 0.3215996
2.8355725 -3.0235271 0.32785088
5.8043203 -2.9924698 0.32878286
2.4311116 -2.9489431 0.32039464
-0.32353461 -2.8434622 0.32063967
9.6694002 -2.8096905 0.32687473
1.9691839 -2.7901945 0.32050729
2.0086145 -2.7421327 0.32133633
-0.94855547 -2.5581114 0.32910335
4.9570255 -2.4571478 0.32070208
5.3720627 -2.4469557 0.3279385
-0.92877293 -2.4345324 0.32320714
-0.68823504 -2.3545427 0.3246322
5.3117228 -2.3219204 0.32844591
1.9027352 -2.2889693 0.32520032
1.8396219 -2.2725511 0.32295024
-1.0525594 -2.2415593 0.32378393
3.1450815 -2.2395198 0.32806969
-1.0235384 -2.1659911 0.32200789
2.3433838 -2.1662333 0.32185346
3.1851106 -2.1662314 0.32185459
5.319118 -2.0972235 0.32961607
5.3726664 -1.9837729 0.3282848
5.5205221 -1.9508562 0.32218102
4.7935505 -1.9134507 0.32528365
2.3433845 -1.8483057 0.32488674
1.946609 -1.8397926 0.32509124
4.1380424 -1.6150756 0.32965553
11.378079 -1.3844546 0.32977763
4.9283438 -1.3636347 0.32291248
-2.190151 -1.0842589 0.32708669
4.1059752 -0.96702552 0.32520264
4.7308226 -0.89701796 0.32339704
3.0575376 -0.86389673 0.3233099
3.0692353 -0.84253025 0.32056713
3.2017801 -0.83392948 0.32100886
7.9120793 -0.8358438 0.32829145
-2.2857375 -0.77247679 0.32693937
7.415029 -0.7573061 0.32920283
-2.3024619 -0.58576715 0.32943749
-1.9525867 -0.55007958 0.32958898
-2.1656125 -0.50486183 0.3226341
-2.0610881 -0.43692875 0.32698578
7.683569 -0.35291541 0.32723978
7.8468704 -0.24797237 0.32536232
-2.0630953 -0.085729718 0.32520074
2.3433845 -0.085724533 0.32488674
4.5466385 -0.085734963 0.3255164
5.7624369 0.026714891 0.32116526
-2.6937854 0.11312962 0.32565919
-3.4294934 0.12641072 0.32793149
-2.5839493 0.23520561 0.32228971
6.3958402 0.33086485 0.3245365
1.9027352 0.35491818 0.32520032
2.3433845 0.35492077 0.32488674
2.7840297 0.35492077 0.32488459
-3.0051601 0.38441932 0.32322741
8.9735231 0.51519495 0.32643461
-2.8903224 0.52574921 0.3205179
7.0384684 0.55622232 0.3293426
-3.4713929 0.58991069 0.32885432
5.3404541 0.68661082 0.32898581
5.5455465 0.7660473 0.32969138
4.6901937 0.78036737 0.32416272
-0.92463207 0.79556608 0.32238954
1.4620929 0.79556608 0.3248859
1.9027352 0.79556608 0.32520032
2.3433845 0.79556608 0.32488674
2.7840297 0.79556608 0.32488459
3.2246745 0.79556608 0.32488662
8.3970346 0.7955662 0.32933795
-3.6372073 0.81353867 0.32813647
-1.6516156 0.91731006 0.32160449
-4.050312 0.94582033 0.32477283
-4.069232 0.97016859 0.32671264
-3.8545301 0.98839545 0.32485068
8.9831657 1.0014118 0.32653856
-3.5665472 1.0224227 0.32078505
-3.0439126 1.0383589 0.32768121
8.5733004 1.0802306 0.32560098
8.7314196 1.119043 0.3282178
-2.086139 1.2354592 0.32391393
1.9027352 1.2362139 0.32520032
2.3433845 1.2362114 0.32488674
2.7840297 1.2362114 0.32488459
-4.3144579 1.2677622 0.32850921
-3.6159203 1.2650628 0.32862774
-1.72065 1.2855207 0.3206867
-1.7534053 1.3253613 0.32687888
-1.8638067 1.3388515 0.32915205
8.7937069 1.3856199 0.32043588
8.2377043 1.4067224 0.3280437
5.9010038 1.4590354 0.32594994
-3.8298719 1.4672935 0.32543361
5.747879 1.5725162 0.32641667
-0.64165092 1.6406031 0.32007325
2.3433845 1.6768568 0.32488674
-0.89645386 1.7118493 0.32002914
5.825614 1.7526876 0.3280499
7.4082503 1.7560461 0.32681215
-2.9020205 2.0485575 0.32677007
-2.8776739 2.0978677 0.32123983
4.1059752 2.1175098 0.32520264
4.5466118 2.117502 0.32488537
-2.3462276 2.1441095 0.32467097
-2.4096181 2.1739419 0.32770386
6.9823251 2.2144246 0.32667172
8.0044537 2.2575016 0.3276161
-2.9202392 2.3041177 0.32583523
-5.3656764 2.517504 0.32883942
0.58080292 2.5581474 0.32488596
3.6653194 2.5581474 0.32488871
4.1059752 2.5581577 0.32520264
4.5466385 2.5581682 0.3255164
4.9872723 2.5581577 0.32520235
7.190485 2.5581474 0.32488698
-1.5968933 2.6122162 0.32542253
1.011233 2.7202399 0.32026458
-5.9198642 2.9192851 0.32300228
1.3310368 2.9677575 0.32461444
3.6653194 2.9987926 0.32488871
4.1059752 2.9988058 0.32520264
4.5466385 2.9988186 0.3255164
-0.060046673 3.0014801 0.32075787
-2.3762171 3.0682335 0.32851687
-6.0923834 3.0732737 0.32761252
1.7758574 3.1240377 0.32160562
-0.02841115 3.1549962 0.32773894
0.95215511 3.2138958 0.32755172
-2.7641757 3.2274234 0.32906038
-6.404398 3.2749538 0.32984889
-0.12096977 3.3331523 0.32271916
1.1427315 3.3446269 0.3260577
0.68696243 3.377079 0.32445845
7.190485 3.4394379 0.32488698
7.014082 3.472724 0.32202947
-6.5094652 3.6260159 0.32117319
6.7890391 3.6308498 0.32027078
-0.029551506 3.7299628 0.32834637
-0.11321557 3.7565548 0.32516101
2.0022995 3.7879515 0.32949418
-3.6588349 3.7907147 0.32594609
0.024666786 3.8762288 0.32658601
6.749836 3.8800833 0.32488722
-0.34506845 4.0696473 0.32439673
6.2910128 4.0825968 0.32563156
-0.15368497 4.2049026 0.32577294
6.3091893 4.3207283 0.32488829
2.8599188 4.3679795 0.32532382
5.7885203 4.4220037 0.32107699
-0.066258192 4.4520102 0.32445878
-0.12096977 4.6019454 0.32271916
-4.2170959 4.6790743 0.3253271
3.2194731 4.6889229 0.32880989
-0.45096946 4.7496243 0.32112157
5.8685465 4.7613735 0.32488734
1.9830421 4.8017979 0.32398811
-7.8834486 4.81635 0.32690799
-1.0712576 4.8291888 0.32277298
1.3971527 4.8524833 0.32583451
-1.1331525 4.8759203 0.32858053
5.5562062 4.9195061 0.32279685
-4.5806999 4.9227467 0.32709128
-1.8112919 4.9359665 0.3236151
4.9284697 4.9454298 0.32212836
-7.8769026 5.0728559 0.32884422
-0.52529931 5.1260004 0.32778612
5.4279013 5.2020192 0.32488519
-1.4765329 5.3298206 0.32789195
-5.0080919 5.3885822 0.32195979
-1.7797401 5.4077721 0.32829815
-1.8427107 5.4499683 0.32606804
-1.5065796 5.4824905 0.32298344
2.6362534 5.5196748 0.32383969
-5.3663883 5.5816121 0.32644758
4.7205124 5.5987644 0.32232898
-5.2524767 5.6287909 0.32093924
1.983586 5.6414194 0.3244586
4.9872723 5.642693 0.32520235
-9.059227 5.8489842 0.32105327
1.3769659 5.8496575 0.32632446
-8.661253 6.0245075 0.3202889
-6.2573357 6.3434339 0.32370815
3.8580549 6.4673009 0.32427111
1.4379666 6.5377946 0.32279223
3.8575647 6.6977739 0.32357043
2.8282132 6.8503246 0.32382882
3.6653361 6.9646735 0.32551801
2.7600982 7.0588055 0.32631075
-0.22368705 7.1276317 0.32175174
1.991719 7.2671084 0.32843256
2.7006543 7.5852723 0.32413578
-7.5710378 7.6176605 0.32095656
1.5596983 7.7501092 0.32973182
1.8717494 7.8148789 0.32951346
-8.2321005 7.845891 0.32488483
-7.7915182 7.8459325 0.32520288
-7.350008 7.8453059 0.32047504
-8.3075113 7.8813705 0.32003093
-9.5540371 8.2865362 0.32488674
-1.4765329 8.6274605 0.32789195
-1.8101845 8.7355328 0.32361937
0.76189494 9.654048 0.32941884
-6.7661715 10.443584 0.32117271
-0.34631586 10.750059 0.32279384
-0.732306 11.09434 0.32711959
-3.7669563 11.154802 0.32378989
-4.1238852 11.180022 0.32591224
-1.0752385 11.363468 0.32609892
-5.5716949 12.463865 0.32664239
-2.5037138 12.692989 0.32488745
-2.0630953 12.69306 0.32520074
-2.2985752 12.895594 0.32641712
-4.9686975 13.144852 0.32450855
-3.3850057 13.57428 0.3248865
-3.2708852 13.633056 0.32227212
-4.2666473 14.015631 0.32772321
-3.8256485 14.45557 0.32488555
9.1484404 -12.198133 0.33333579
8.738884 -12.16466 0.33238721
8.649291 -11.431908 0.33310062
10.078297 -11.187126 0.33457083
7.7354336 -10.985196 0.33321828
8.2627382 -10.828704 0.33759022
10.747029 -10.611059 0.33723322
6.6306081 -9.7830715 0.33756244
9.9300985 -9.7247581 0.33816767
9.1570215 -9.712595 0.33208156
9.4998083 -9.3998737 0.3354761
9.1673346 -9.3529453 0.33179426
8.3899393 -8.4598999 0.33324802
8.0154762 -8.0732269 0.33154333
8.0794735 -8.0069857 0.3330121
14.331834 -7.1342068 0.33946341
12.27562 -5.4915471 0.33850574
2.7062893 -5.4269729 0.33607686
1.9384649 -5.2309542 0.33502984
15.105744 -5.1621456 0.33636349
15.273665 -5.1290698 0.33986408
2.7099988 -4.9481082 0.33418107
3.9501319 -4.8800278 0.33626813
1.9829201 -4.8196106 0.33390248
1.6619697 -4.7548609 0.33861154
2.2818713 -4.5531921 0.33967441
1.8648381 -4.4670105 0.33853358
1.3709148 -4.4218388 0.33681181
3.9637125 -4.4006085 0.33773386
1.9244965 -4.3111238 0.33921626
1.4295857 -4.2160397 0.33420157
3.5704799 -4.1604323 0.33338231
4.2275877 -4.1217136 0.33043647
1.8081926 -4.0967436 0.3338424
7.3987784 -4.0059333 0.33213389
1.2020776 -3.8456514 0.3395882
3.4110427 -3.8411808 0.33171749
3.0924387 -3.7459252 0.33219147
3.8975196 -3.705868 0.33376133
0.11082006 -3.6153674 0.33216998
0.50754857 -3.4287436 0.33366114
2.7071683 -3.4194722 0.3314243
0.44691169 -3.3789108 0.3304987
2.7663918 -3.3650391 0.33916381
0.13553309 -3.3110464 0.33614516
0.7964797 -3.2935128 0.33792192
10.154748 -3.2589765 0.3383531
2.7120457 -3.2099953 0.33330619
2.7186995 -3.1460714 0.33192658
6.3769536 -3.0510836 0.33734149
5.3095403 -3.0158961 0.33209169
-0.2988224 -2.9750302 0.33476758
-0.57487559 -2.9202189 0.33260077
-0.55432105 -2.7776031 0.33013594
4.0880194 -2.7398274 0.33292395
5.4827318 -2.7065845 0.3316353
2.0285249 -2.4319196 0.33386844
-0.64694118 -2.4160738 0.33372784
5.7907934 -2.3790128 0.33464363
3.5704799 -2.3582506 0.33338231
12.296843 -2.2559152 0.33873844
5.4429264 -2.2335281 0.33214167
6.6737051 -2.1810682 0.33752304
5.9291735 -2.1536653 0.33148614
1.8498205 -2.136363 0.33810592
-1.2076776 -2.0624859 0.33234024
4.9726391 -1.9022075 0.33925653
-1.1256692 -1.8517547 0.33419734
1.9946526 -1.8568877 0.33013117
5.3578272 -1.8461323 0.33706585
4.6629052 -1.8243884 0.33399165
-1.3163242 -1.756886 0.33300108
8.4904404 -1.75212 0.33542132
-1.7205863 -1.6913507 0.33673537
6.2550344 -1.6888347 0.33639205
5.5088553 -1.6572089 0.333583
-1.7553308 -1.5285267 0.33881724
-2.0199816 -1.2566299 0.33975121
7.0067682 -1.2089221 0.33164287
-1.7056744 -1.119307 0.33930916
-2.1936991 -1.0977949 0.33504975
3.6038303 -1.0049109 0.33330676
3.702599 -0.98652899 0.33617699
-2.1478653 -0.97759706 0.33808553
7.1977348 -0.94792444 0.33420524
3.3486562 -0.88320625 0.33605158
-2.5415075 -0.8434788 0.33542776
5.3410931 -0.75857383 0.33629155
7.5339575 -0.52970749 0.33985084
7.966507 -0.52970445 0.33985269
4.5547843 -0.5051102 0.33399379
3.3660822 -0.49013484 0.33431637
-1.8861551 -0.37561214 0.33388349
7.1562705 -0.30476058 0.33424592
7.6985598 -0.27302176 0.33210051
7.5356832 -0.25588584 0.33269405
6.206769 -0.15059626 0.33194447
4.1324039 -0.10802543 0.33670363
1.6290829 -0.067772985 0.33837408
6.0349178 -0.055818915 0.33862352
-3.3189902 0.075689375 0.3399111
1.7948802 0.082741618 0.33988726
-2.9185059 0.15355706 0.33831444
2.0130768 0.19689322 0.33419314
7.6769972 0.29864895 0.33772728
7.166276 0.30319661 0.3372125
1.1004763 0.31658828 0.33826512
2.160656 0.31717861 0.33863181
7.7405624 0.32943118 0.33054316
6.0270939 0.43173206 0.33914268
6.4618835 0.46894073 0.33075887
1.3300703 0.52166724 0.33993757
2.5343328 0.5372026 0.33426255
-2.6493447 0.54036319 0.33510214
6.9199581 0.54291344 0.3359338
-1.2039237 0.59284973 0.33283448
2.2610807 0.64499801 0.3398006
-2.9972346 0.66673589 0.33326784
-0.6789782 0.67380995 0.33441079
7.135397 0.68682998 0.33531666
1.6353253 0.69742763 0.33868694
2.6829436 0.69521695 0.33872354
2.0097935 0.74188286 0.3343904
5.0009565 0.75876325 0.33596236
4.7999067 0.76979023 0.33399051
6.9881325 0.7796995 0.33936352
-3.6601205 0.79556608 0.33269477
4.9187403 0.79556608 0.3320657
3.0550675 0.87717587 0.3343322
9.4480238 0.92965561 0.33371234
-3.522239 0.93675083 0.33563513
5.5963345 0.93895155 0.33389208
-0.14462018 1.0262438 0.33800179
8.613658 1.0473092 0.33418262
2.1608496 1.0714378 0.33893681
2.5343435 1.0837944 0.33424348
-3.9465039 1.1077178 0.33521846
-0.22471738 1.1366661 0.33173543
9.0110292 1.1596802 0.33483088
2.0067496 1.2931376 0.33415183
6.4135332 1.3043236 0.3399387
-4.327333 1.3207207 0.33230036
-4.4333043 1.3509886 0.33289272
-3.5295665 1.3705425 0.33506072
-1.7858922 1.4519935 0.33428258
-1.2093208 1.7235634 0.33521488
8.5693674 1.8535948 0.33371943
8.1004438 2.0312796 0.33739561
-2.1644461 2.0441813 0.33470058
-1.7141531 2.0498867 0.33801532
4.1048231 2.1074593 0.33381057
-1.8020763 2.1569934 0.33079946
3.6845026 2.1559935 0.33982396
-2.2361705 2.3087294 0.33441573
3.5881119 2.3236217 0.33414873
-2.617847 2.4338512 0.33014071
4.6270113 2.4483848 0.33409548
6.9482169 2.5195389 0.33202538
1.458829 2.6389546 0.33424282
4.1141286 2.6664908 0.33422077
-5.4038515 2.6729972 0.33215034
1.3356588 2.688282 0.33295792
7.2898035 2.8461988 0.33294141
4.6394939 3.0092161 0.33450896
0.10007048 3.0916924 0.33545089
-2.7650371 3.2076228 0.33280993
1.4519708 3.2165363 0.33444464
4.1236792 3.2321732 0.33441949
6.9915943 3.2416081 0.33845797
1.1177883 3.2951782 0.33468992
0.4298979 3.3400073 0.33128148
-3.1495264 3.3568506 0.33746231
1.0298166 3.3913527 0.33104947
0.094255686 3.4276628 0.33498824
6.7489414 3.6890609 0.33709055
6.7111812 3.807718 0.33416378
0.88214016 3.8157654 0.33235186
6.5470905 3.8671141 0.3348884
6.5177479 3.8841541 0.33101678
6.547842 3.8846166 0.33786744
-6.8894501 3.9094486 0.3382889
2.5342646 3.9193394 0.33436942
-6.8805685 3.955461 0.33738041
6.3271956 4.0853882 0.33397979
2.7608454 4.1201706 0.33188275
3.0743635 4.2705159 0.33466518
-3.9915757 4.3263025 0.33741188
-0.52752709 4.358882 0.33021957
-1.559037 4.5280514 0.33191052
-4.2903876 4.6170874 0.33851635
5.6502695 4.6673665 0.33480948
5.5988293 4.7088637 0.33478025
3.0444808 4.7377911 0.33309674
1.3692172 4.7617869 0.33696747
1.7960274 4.7772827 0.33209294
5.4741693 4.7720623 0.33471352
-1.0412958 4.8414173 0.33396244
5.7279449 4.8416314 0.33418083
1.9291418 4.8773704 0.33834046
5.1990519 4.9138541 0.33011973
-4.9445105 5.0412455 0.33373868
-4.8057404 5.27321 0.33193439
1.5066941 5.4417982 0.33704698
2.6454742 5.4780979 0.33194289
-5.3353496 5.4805493 0.33144295
0.98747945 5.6985016 0.33812025
-8.9744234 5.7350383 0.33548492
2.2598059 5.7597218 0.33523917
-5.3061104 5.7839584 0.33942911
2.0059652 5.7856259 0.33559394
1.8656921 5.8402457 0.33062685
3.7898417 5.8489251 0.33478349
4.7056746 5.9165907 0.33419847
3.7268767 5.9668221 0.33209532
1.3325418 6.1158094 0.33192664
-6.028944 6.4409447 0.33634678
3.3206286 6.4886212 0.3333919
1.3311757 6.573884 0.33132172
-3.2099662 6.7945652 0.33287954
3.7882833 6.7950759 0.33282632
3.2961545 6.9320765 0.33633161
2.6572185 6.9621987 0.331507
-0.079113841 7.1449847 0.3359009
2.5309951 7.1497469 0.33073103
2.687444 7.1946259 0.33860028
-7.1848602 7.3001051 0.33494735
-10.247363 7.4419436 0.3398931
2.7060146 7.462532 0.33591139
-0.41277027 7.4997821 0.33802533
-7.542922 7.761692 0.33589673
-0.85373592 7.9300475 0.33440316
1.5949515 8.6325645 0.33888561
1.8645737 8.6893845 0.33837152
-8.545373 8.7106962 0.33578038
-9.251483 9.0159273 0.33568549
-5.6354465 9.2306433 0.3331064
-2.1973279 9.2592163 0.33341742
-7.3289909 10.227955 0.33906817
-6.6162448 10.254764 0.33774
-6.7378159 10.443873 0.3342374
-3.5258081 10.712111 0.33010021
-3.7523582 10.748905 0.337327
-0.95265031 11.489046 0.33389607
-4.1445885 11.612398 0.33290148
-5.287652 11.826811 0.33627632
-2.0807903 12.237701 0.3380053
-2.3437405 12.538263 0.33751506
-2.3613517 12.656068 0.3353374
-2.1983581 12.732023 0.33427557
-5.3988185 13.321701 0.3346771
-4.8604803 13.343346 0.33226901
9.4551868 -11.38315 0.34622347
10.166367 -11.383151 0.346223
9.472578 -11.309404 0.34035128
10.127194 -10.965598 0.34889132
7.7827878 -10.933907 0.34035575
7.0594769 -10.471375 0.34303308
10.039252 -10.075491 0.34085575
6.7444644 -9.9126472 0.34493417
8.7302561 -9.7788591 0.3455826
6.5459986 -9.7027893 0.34675604
5.3489175 -8.5613623 0.34463707
13.627393 -6.3616838 0.34716237
14.629706 -6.2537651 0.34319836
14.984832 -6.1404519 0.348014
14.225779 -6.1015568 0.34882295
2.6985178 -5.5183821 0.34769052
2.9134281 -5.4498782 0.34659472
2.7859156 -5.4016943 0.34647208
2.6716833 -5.3703837 0.34510779
2.8314109 -5.3494949 0.34645796
2.2833319 -5.0700464 0.34667343
2.0423481 -4.9559174 0.34654188
1.8821077 -4.9077449 0.3492105
1.8640826 -4.6168938 0.34606236
2.4028356 -4.5450802 0.34953874
1.3484516 -4.5191083 0.34139454
3.9778693 -4.2708311 0.34390539
4.4062567 -4.2007627 0.34338385
3.2786603 -4.1688542 0.34818989
2.0458648 -4.1026883 0.34990281
2.0417111 -4.0926695 0.34593287
3.9698796 -4.0106368 0.34122771
3.5603704 -3.8064265 0.34305757
3.8062313 -3.7784374 0.34496969
3.0636256 -3.7589986 0.34351003
3.9900031 -3.7349637 0.34253067
1.1120305 -3.6503308 0.34867036
3.5747693 -3.6491892 0.34942508
3.9852231 -3.6494153 0.34927559
-0.0081584454 -3.5998449 0.34313154
3.3171678 -3.5975854 0.34250715
0.73105234 -3.5872419 0.34625268
2.648653 -3.4855425 0.3436687
0.2526691 -3.4766564 0.34661829
2.6680665 -3.4557817 0.34859848
2.6620462 -3.4296572 0.34871459
3.291182 -3.3556564 0.34349883
6.507762 -3.0629218 0.34955454
13.056907 -3.0663855 0.34086406
2.7765038 -3.0011675 0.34712899
2.5101764 -2.9112005 0.34231162
-0.20756507 -2.8815598 0.34546927
9.4958515 -2.7650216 0.34507945
2.0104816 -2.7582166 0.34593487
-0.30168033 -2.7311847 0.34885335
9.3544798 -2.6466045 0.34439126
5.2592597 -2.5526388 0.34618962
-0.98558247 -2.1356301 0.34509826
4.8706779 -2.1303117 0.34476352
5.2670212 -2.138432 0.34258449
4.8444643 -2.1260955 0.34329182
2.8009303 -2.0231886 0.34462833
6.4090586 -1.9102786 0.34688812
2.5184643 -1.8805299 0.34412074
1.9531639 -1.8213736 0.34352064
-1.6576838 -1.8015901 0.34969026
4.8355007 -1.5984604 0.34826458
2.717257 -1.4273006 0.34273112
7.4650469 -1.3407587 0.34226078
11.19418 -1.2772536 0.34706819
3.6779032 -1.0199585 0.34308583
3.0895944 -0.78654468 0.34926498
8.1237268 -0.77169567 0.3465201
-1.7380292 -0.56696671 0.34764421
3.5863423 -0.55652845 0.3428266
4.6653767 -0.35860378 0.34229517
7.5718813 -0.32652214 0.34360784
8.1456852 -0.23965642 0.34272069
4.115222 -0.13849008 0.34356517
3.916239 -0.057016969 0.34365004
2.5297167 0.0032734573 0.34151739
6.9258537 0.033702016 0.34503487
7.017931 0.066812485 0.34430963
6.3897748 0.32823709 0.34546641
1.5036217 0.35464245 0.34754848
1.9629067 0.3729583 0.34749508
1.7968595 0.58363581 0.34014964
1.0447768 0.78365445 0.34744549
1.5024066 0.80291224 0.3476994
4.7182226 0.80496973 0.34868532
1.9622719 0.82230955 0.34765017
8.7624331 0.8268621 0.34038132
2.4244039 0.84184855 0.34729266
-3.6039579 0.90794957 0.34291077
-0.39616656 0.97857475 0.34158853
-0.79185843 1.0045065 0.34027904
1.3339481 1.0200126 0.34019482
1.7987471 1.0803022 0.34012556
2.2612321 1.1404231 0.34033942
-0.3855691 1.2112862 0.34892014
1.5012646 1.2523794 0.3475467
1.9618036 1.2729166 0.34719193
2.4243615 1.2934474 0.34744668
-3.8651924 1.3882997 0.34821308
-4.3543239 1.4410574 0.34150434
-3.5632617 1.4701768 0.34334874
-3.506372 1.5176339 0.34433901
-0.61236644 1.5243787 0.34680432
1.800615 1.572943 0.3401103
1.9610847 1.7245266 0.34765065
8.1310616 1.7600067 0.3405053
3.6289239 1.8054706 0.34066725
8.0636005 1.8939342 0.34136915
-2.5973661 1.9956893 0.3492285
4.125844 2.1324112 0.34379184
-2.0188403 2.1455731 0.34761864
8.1585732 2.1937716 0.34843826
3.3586709 2.2460904 0.34734178
0.62194526 2.2641571 0.34785622
3.829371 2.2693212 0.34667265
3.6234479 2.2882476 0.34064496
-0.90609527 2.3202381 0.34973717
0.92304921 2.3263702 0.34393835
4.0730228 2.3443556 0.34112382
7.1017599 2.444134 0.34719849
7.1418753 2.4892569 0.34524632
4.1754231 2.5053787 0.34005904
3.1743836 2.5182247 0.34018719
3.3599308 2.7034876 0.34718657
3.1681578 2.7126083 0.34096396
-2.5310135 2.7297792 0.34164143
3.8312516 2.7278512 0.34651327
4.3046484 2.7522082 0.34646142
3.6180854 2.7673066 0.34089744
0.97812402 2.7847586 0.34742391
-3.7187588 2.8172069 0.34535086
4.0658193 2.8218567 0.34110355
6.8375888 2.8395925 0.34039819
3.6681905 2.8634613 0.34026402
4.5112419 2.8760064 0.3410356
-2.7702138 2.9291708 0.34751838
-6.010129 3.0157135 0.34717464
0.37494278 3.0359249 0.34865576
7.0681162 3.1309824 0.34542346
1.7820561 3.1853194 0.34729457
3.8329415 3.1874499 0.34697735
0.19589293 3.2131748 0.34905148
0.35366774 3.2122324 0.34437269
3.6126976 3.2424338 0.34087324
-0.19834495 3.2695694 0.34086305
1.1061959 3.2617469 0.34961903
-6.3887968 3.2962389 0.34829497
7.0495157 3.2913804 0.34039897
6.7123566 3.3426785 0.34476519
-6.2751679 3.4152069 0.34597576
0.057512283 3.4814568 0.34126872
-2.2517707 3.6346226 0.34210646
6.5616355 3.6595628 0.34225297
-0.12315822 3.7640684 0.34000874
-0.044682264 3.8160172 0.34307975
6.2467065 4.1095381 0.34308481
-0.53020394 4.1691709 0.34553337
2.2615714 4.183197 0.34155476
1.8153596 4.2446837 0.34925169
3.2568324 4.37292 0.34137598
-0.15494895 4.3941765 0.34452677
-7.3930655 4.4773459 0.34886092
-1.0412849 4.5402555 0.34679487
-0.12308347 4.6704831 0.34415591
-4.4694142 4.6898694 0.34156072
1.9474173 4.6887527 0.3416425
-0.48410666 4.8987703 0.3406353
-1.5768392 4.9838572 0.34897447
5.3277879 5.090765 0.34713489
-4.917047 5.1877689 0.34912318
-1.0735686 5.1999168 0.34623325
1.7725513 5.2418189 0.34243321
4.8411374 5.2801647 0.34528127
5.0563879 5.435792 0.34571624
4.8733191 5.4484525 0.34257954
-0.74148393 5.464849 0.3476696
-1.6346296 5.4754038 0.34968567
4.891376 5.5413084 0.34442085
-8.6455984 5.5741072 0.3476038
0.72895837 5.627388 0.34007576
3.8230636 5.6609893 0.34251752
2.03654 5.6906543 0.34098822
4.7185287 5.6945081 0.34971547
3.6747561 5.7879238 0.34499127
1.6356627 5.814014 0.34740859
1.9326336 5.8114128 0.34112805
2.1653953 5.9330134 0.34630293
3.3946242 5.9572182 0.34812415
1.7548292 6.0031385 0.34379923
1.3975842 6.031189 0.34227034
-9.0576591 6.0760865 0.34328306
2.0362039 6.1482368 0.3406688
1.3884587 6.1987014 0.34494561
1.267066 6.2123771 0.34403396
0.76817816 6.3666358 0.34353873
-2.9530866 6.4784245 0.34520864
3.407115 6.508359 0.34013033
-9.3555374 6.5879583 0.34007359
1.373071 6.7674294 0.34616497
2.6836922 6.9918084 0.34159201
3.2481284 7.1756816 0.34316677
-9.9918385 7.6596861 0.34850383
-8.3154898 7.7974892 0.34861112
-8.307869 7.8964367 0.34064627
-9.8418159 8.2816877 0.34020412
1.973812 8.3175488 0.3441478
-4.2986412 8.4269962 0.34831944
-10.437778 8.506279 0.3482585
1.7797196 8.5862103 0.34609777
-8.3421984 8.6887817 0.34802008
1.4896919 8.8460808 0.34760773
1.388819 9.0594044 0.34228805
1.0122795 9.1021099 0.34353724
1.067997 9.2346582 0.3468833
-2.1940444 9.2986145 0.34251702
-2.0184584 9.331543 0.3494854
-2.2810898 9.3483219 0.34531295
0.5508697 10.029738 0.34448117
0.17064953 10.088679 0.34441555
0.24743164 10.193322 0.34326178
-7.3848734 10.227862 0.34865785
-4.8184714 10.764859 0.34284461
-0.44204926 10.947742 0.34172794
-6.5218725 10.978088 0.34759283
-4.2388711 11.575786 0.34326041
-5.2033596 11.727838 0.34702155
-6.3476934 11.845787 0.34910655
-1.6690905 11.943903 0.34182274
-2.1846011 12.203017 0.34969926
-1.8489242 12.527724 0.34260741
-2.4413447 12.690201 0.34141064
-3.1684167 12.861683 0.34711683
-4.5918074 13.533794 0.34285474
-3.062268 13.737409 0.34390616
-3.6357486 13.752495 0.34716976
9.0682516 -11.197251 0.35231006
9.4835262 -10.501554 0.35538492
9.7965298 -10.445454 0.35338822
9.9178953 -10.097916 0.35289574
9.6078758 -10.039295 0.35859752
9.2452211 -9.9526758 0.35778683
8.8801451 -9.7660275 0.35950291
9.1781397 -9.6935415 0.35967889
9.1619234 -9.6409702 0.35263515
9.6446438 -9.5490856 0.35937715
10.799834 -9.5241089 0.35093141
5.87747 -8.9523621 0.35430688
8.442255 -8.4128094 0.35918069
8.041317 -8.381567 0.35939801
4.8328466 -8.3065796 0.35295412
11.197768 -7.7282982 0.35669994
12.73368 -7.6806402 0.35438848
7.6360126 -7.6782484 0.35737908
7.3583679 -7.2461853 0.35096157
13.728197 -7.1594391 0.35439324
13.786505 -7.0806026 0.35198176
6.9271441 -6.8664746 0.35574156
13.579422 -6.2950993 0.35717875
13.952978 -6.1372027 0.35159379
13.844229 -6.0985742 0.35927737
14.497957 -6.0144606 0.35907692
12.275454 -5.7135296 0.35324183
2.6734982 -5.5042887 0.35700142
2.1719375 -5.1262746 0.35688156
2.3433843 -5.0926566 0.35370862
5.0224552 -5.0650234 0.35287887
2.1842067 -4.9382219 0.35564166
1.6178055 -4.9113398 0.35714486
1.3965112 -4.7321773 0.35770828
2.1718583 -4.6929297 0.35675615
1.2211263 -4.4665422 0.35501328
4.2181602 -4.4585795 0.35319555
4.3698206 -4.3800201 0.35159481
0.94082499 -4.3264728 0.35012591
1.6719037 -4.3168993 0.35713041
3.7025366 -4.0750742 0.3540917
3.3343005 -4.0369816 0.35983586
1.5197673 -3.7538025 0.35482502
0.69291914 -3.7221811 0.35767883
3.242322 -3.7143955 0.35930336
0.59715867 -3.6181164 0.35263997
0.689605 -3.6074903 0.35017014
2.9707561 -3.5367885 0.35791415
-0.18721104 -3.405875 0.35929149
-0.025336504 -3.3394248 0.35257328
0.16812897 -3.3256216 0.35553402
10.162846 -3.2411611 0.35892224
1.0552207 -3.1886358 0.35214871
-0.11163151 -3.0837457 0.35026479
13.128885 -3.0535612 0.35559574
6.4009147 -2.9887218 0.35094786
5.6576538 -2.961174 0.35981479
1.6111032 -2.5914843 0.35458341
-0.49773812 -2.5543768 0.35935199
1.4353658 -2.4093826 0.35830986
1.4093996 -2.3864892 0.35059011
12.31934 -2.3621774 0.35354248
1.9680952 -2.3323743 0.35207003
-1.4087932 -2.1912656 0.35670292
4.7768569 -2.1343672 0.35015184
6.5571632 -2.1137886 0.35530174
2.7099924 -2.0568526 0.35853881
4.576448 -1.9657624 0.35484391
2.4230239 -1.9056067 0.35217792
1.9321269 -1.8990549 0.35526097
2.768786 -1.861563 0.35770184
2.1855922 -1.6821576 0.35806775
-1.4071343 -1.5348983 0.35949951
-1.8001246 -1.4971755 0.35293916
4.5348139 -1.4841106 0.35328674
2.8770587 -1.4797862 0.35198992
-1.7890878 -1.4135425 0.35521394
-1.8677874 -1.2407963 0.35052246
-2.0588758 -1.0145725 0.3508212
3.5375764 -0.90137607 0.3562068
3.7817552 -0.63064921 0.35339075
3.6399183 -0.56083584 0.35108867
-1.8223438 -0.47267449 0.35910732
-1.7722497 -0.43476868 0.35303336
3.587575 -0.43171287 0.35502183
-2.132153 -0.35541821 0.35455203
3.7747531 -0.3108018 0.35482335
-2.1051524 -0.30738842 0.35891342
-1.7030399 -0.27629256 0.3581568
4.6804094 -0.22450817 0.35209841
4.2331786 -0.20771796 0.35201782
7.0101976 -0.1656383 0.35934412
-2.3162522 -0.15283361 0.35730505
-2.5281186 -0.1248281 0.35462564
2.266618 -0.054257631 0.35961008
6.9095845 -0.043255657 0.35145381
10.224515 -0.04046914 0.35766092
4.0626612 0.080803156 0.35953057
4.3725042 0.17425108 0.35176533
7.2825327 0.26813936 0.35699511
-3.4395094 0.30270863 0.35409111
2.4228189 0.30472836 0.35291034
1.9645367 0.32290062 0.35223025
2.7271352 0.38059396 0.35959029
-2.6305928 0.41775167 0.35149816
-1.1527996 0.44703174 0.35373789
1.8084767 0.50489104 0.35962546
-3.0371275 0.6151467 0.35457575
-2.5024784 0.62577903 0.35956982
9.4536419 0.69499832 0.35659659
-0.88933372 0.72223318 0.35698915
2.8798542 0.73084581 0.35242134
2.4229779 0.75009781 0.35234118
1.9638506 0.76948905 0.35255778
1.5026255 0.78892398 0.35247517
6.8518543 0.788019 0.3531906
-0.44729972 0.81042671 0.35904515
3.1863494 0.81399345 0.35984558
2.2666168 0.93600702 0.35960793
1.8103048 0.99654281 0.35948896
5.5806398 1.0562258 0.35204595
-3.8673465 1.1465772 0.3584162
2.8803511 1.1764249 0.35275024
-4.1370001 1.1918975 0.35651726
2.4229712 1.1967051 0.35236579
-3.2330842 1.2191921 0.35025054
1.9632498 1.2171845 0.35258502
0.0083351135 1.2355949 0.3590253
2.7233052 1.3659722 0.35931224
2.2665784 1.4251744 0.35946715
5.9725957 1.4393687 0.35972619
6.1122494 1.4536 0.35205773
-1.8060775 1.4764702 0.35444835
6.0278625 1.4757655 0.35215312
8.3377457 1.4977295 0.35608461
-0.37908745 1.5266356 0.35880262
-1.9358981 1.5623288 0.35689759
2.4228795 1.6445187 0.35269618
8.439002 1.7742448 0.35389522
8.6524382 1.7873149 0.35149437
-4.9844151 1.913922 0.35204625
-2.2649174 2.0005176 0.35979795
4.2447195 2.0038741 0.35214931
-1.5976731 2.0343308 0.35160422
4.5553923 2.106957 0.35950547
4.0928793 2.1645129 0.35938776
-2.926245 2.1746669 0.35986435
-1.8505663 2.2509689 0.35662746
-2.6275601 2.3463933 0.3534258
7.4860578 2.3619683 0.35078406
-2.7870364 2.3703701 0.35450745
-0.90589595 2.3803747 0.35212713
4.6977425 2.4263716 0.35196072
4.2471189 2.4495335 0.35187989
6.6133099 2.4562821 0.35010904
3.7941403 2.4729791 0.35269237
7.0932336 2.5078099 0.35285705
5.0091248 2.5351858 0.35975742
-2.5554163 2.5744882 0.35987669
4.546042 2.5916822 0.35936844
0.47694826 2.6143651 0.35873878
0.56378245 2.6391282 0.35272807
4.0855136 2.6476321 0.3595221
3.6272588 2.7034233 0.35940456
4.7006445 2.8721488 0.35198742
4.2493052 2.8965125 0.35250264
3.7959719 2.9208696 0.35241908
7.0848532 2.9385691 0.35197055
1.4966003 3.044529 0.35261458
4.536768 3.0724797 0.35923165
0.0014879704 3.1144357 0.35561734
4.0781269 3.1269765 0.3593843
-2.74751 3.1444106 0.35398185
7.1446047 3.1435952 0.35549918
-0.54331446 3.1592216 0.35036135
7.3701906 3.1694462 0.35191417
1.0389888 3.1785526 0.35485971
-0.45246315 3.1916544 0.35589904
0.61626518 3.2005103 0.35237873
7.3184853 3.2244833 0.35979611
-2.7475967 3.2321911 0.35231715
1.0000268 3.2635365 0.35394174
-6.0850821 3.2905793 0.35064134
-0.48430014 3.294795 0.35665011
4.2516418 3.344523 0.35252798
-0.34241128 3.5200894 0.3592881
-0.48933494 3.5695357 0.3578862
6.9060211 3.5831809 0.3530871
6.936543 3.6368806 0.35244805
-3.6937289 3.7590871 0.35504997
2.6708093 3.7593939 0.35939682
6.8286314 3.7596126 0.35953808
6.2438045 3.8667307 0.35946643
2.2842851 4.030736 0.35123801
6.4999294 4.1075001 0.35209477
-3.8142529 4.1295204 0.35774761
-3.8683696 4.2260509 0.355896
2.2663524 4.2786293 0.35866189
6.3452435 4.2876749 0.35928422
1.6744947 4.2992573 0.35582322
3.0787158 4.3831906 0.35908508
-1.001502 4.3993888 0.35944039
-7.3259768 4.4548874 0.35510981
0.092238903 4.5106578 0.35096198
2.8344762 4.5174608 0.35861623
6.0589662 4.5828667 0.35740143
-0.91997468 4.7652373 0.35241085
-7.6042528 4.781847 0.35135531
5.8681984 4.8088064 0.3590374
-1.7166159 4.9570208 0.35885429
-1.2655478 4.9572625 0.3594743
5.6159444 5.0603938 0.35706675
-1.4247283 5.1263461 0.35330957
-7.9327374 5.1498199 0.35186529
1.7430421 5.1867704 0.35872883
4.8815804 5.3399997 0.3547985
-5.118866 5.3966026 0.35636544
4.2043357 5.3967004 0.35130972
-5.0579119 5.4679527 0.35864878
3.8717368 5.4785724 0.35356617
5.118782 5.5041437 0.35886908
1.4461478 5.5853572 0.35982671
4.2634192 5.6019454 0.35266632
-1.87485 5.6937885 0.35792398
-5.5369253 5.7103119 0.35680592
-8.569932 5.7798386 0.35597467
3.5765395 5.846406 0.35885054
4.3856177 5.8654575 0.35404325
4.0350122 5.9236031 0.35858589
3.0809317 6.1465597 0.35257167
1.3797615 6.1859646 0.35631943
1.7874416 6.2288117 0.3539716
3.3282351 6.224514 0.353075
1.4024864 6.3222523 0.3566913
-8.8971157 6.4117141 0.35634625
-6.3749657 6.4162998 0.35285491
3.2526774 6.4165931 0.35872841
3.7073178 6.4164634 0.35841775
3.3671722 6.4311619 0.35802889
0.61380875 6.4735422 0.35537338
-8.8871365 6.4950724 0.35449904
-6.6030889 6.7113528 0.35127556
2.6694305 6.7232718 0.35352504
2.88554 6.9317164 0.35709518
-6.5821495 7.1588368 0.35278487
1.9188199 7.1760483 0.35341251
2.668458 7.1706567 0.35436004
2.9864986 7.2224798 0.3566882
3.1358643 7.3571024 0.3579818
3.1128263 7.3676577 0.3576417
2.3433843 7.4023275 0.35843301
2.7488263 7.4125996 0.35655785
-9.5383701 7.7459435 0.3558141
-7.8031111 7.8368769 0.35515046
-7.8941245 7.8836389 0.3547613
-7.8113451 8.0263805 0.35751128
1.9611452 8.2760267 0.35178852
-10.101081 8.2910767 0.35432529
-1.3235193 8.3078785 0.35171098
-9.3114595 8.325778 0.35451794
2.0236177 8.3746824 0.35893214
-10.00246 8.5347176 0.35478514
-1.6172154 8.7397156 0.35155383
-8.2751331 8.8634491 0.35529244
-1.959739 8.892148 0.35702848
-9.4112186 8.9694691 0.3554889
-9.4913921 8.9880562 0.35458058
-1.6661917 8.985981 0.3542034
-1.9614367 9.0708303 0.35578451
0.61189413 9.7808533 0.35506636
-3.1122742 10.037796 0.3591001
0.27250195 10.264172 0.35647362
-7.4458203 10.29669 0.35468191
-7.2023664 10.302514 0.35092628
-3.45702 10.695546 0.35361338
-5.1459618 11.968956 0.35643268
-5.1370125 11.992817 0.35613838
-2.5794349 12.415895 0.35529864
-4.5202641 12.550077 0.3595854
-2.428288 12.765259 0.35441178
-2.9266095 12.815794 0.354011
-3.4623175 13.476483 0.35288
-4.5986729 13.539922 0.35731089
-3.3014936 13.628414 0.35479653
8.3271952 -11.367858 0.36784708
8.3524094 -11.313663 0.36220306
8.4863195 -11.315355 0.36755425
10.119435 -11.256226 0.36229315
9.7458258 -11.124592 0.36400843
9.1509352 -11.060352 0.36733127
9.7709408 -10.937752 0.36504316
6.9015632 -10.218215 0.36007532
11.12907 -9.6284571 0.36148423
9.0470457 -9.0213776 0.36563814
5.5540686 -8.8910055 0.360834
5.1865416 -8.47686 0.36135346
8.3719749 -8.4052649 0.363536
13.189469 -7.7599354 0.36776635
7.3317099 -7.4914904 0.36379969
7.0320544 -7.2472124 0.36324564
6.8978186 -6.9966884 0.3643333
6.8562717 -6.7569032 0.36180776
14.450514 -6.3424382 0.36064792
3.0845599 -6.3047409 0.36883754
14.246649 -6.2003369 0.36963499
14.586231 -6.0144615 0.36211789
3.8346756 -5.9521027 0.36772531
5.8721991 -5.9112606 0.36660475
3.2703171 -5.8679686 0.363217
2.7388558 -5.7727485 0.36624587
12.625583 -5.7729573 0.36610043
5.5068827 -5.5500193 0.36541635
3.1706128 -5.3740511 0.36186856
5.0045261 -5.3495917 0.36513966
2.343385 -5.3130369 0.36605549
14.947883 -5.3195186 0.36262661
5.3121958 -5.2355328 0.36351225
2.8168206 -5.126215 0.36048859
12.0188 -5.0943513 0.36289966
1.9579811 -5.0537443 0.36105418
4.9523869 -5.0130482 0.36112255
2.7149196 -4.9684486 0.36485913
4.3601265 -4.8436255 0.36562362
1.3394083 -4.8260212 0.36284471
1.9142241 -4.5663629 0.36762452
3.4182034 -4.5545444 0.36115694
7.7350793 -4.5199795 0.36262399
14.272513 -4.3954401 0.36440888
2.1772368 -4.3515363 0.3654578
1.8759718 -4.3189492 0.3604871
3.3042598 -4.2933331 0.36940765
14.354057 -4.2318406 0.3667565
14.447102 -4.2335596 0.36017978
1.9144872 -4.2212582 0.36249417
3.367991 -4.1909046 0.36799622
14.062457 -4.1344352 0.36910361
1.477035 -4.0602508 0.36118174
14.33688 -4.0426044 0.36797798
1.5378861 -3.8536327 0.36646226
0.78695464 -3.6120167 0.36466175
7.1254721 -3.5905361 0.36044353
-0.028381824 -3.5507236 0.36181986
1.0411494 -3.5360458 0.36524716
1.3221653 -3.503243 0.36065316
0.38737762 -3.3550105 0.36040747
0.22696018 -3.3493512 0.36876133
3.6971178 -3.34833 0.36084902
3.0472136 -3.2571225 0.36545169
1.1059484 -3.1641183 0.3639991
3.4812622 -3.1537638 0.36318198
12.989908 -2.9889677 0.36319962
3.1753242 -2.8791897 0.36036122
2.3433833 -2.8676367 0.36786473
5.4246969 -2.7965374 0.36496025
2.7851915 -2.784523 0.36123991
-0.066586256 -2.7628641 0.36014056
3.2136598 -2.7474852 0.36029148
1.6729728 -2.5580094 0.36756474
1.7971189 -2.5314112 0.3602047
1.818558 -2.2648067 0.3659572
-1.2105938 -2.1397581 0.36600071
2.2669318 -2.0851269 0.36073983
4.5211 -1.9626895 0.36922997
7.4506922 -1.8635802 0.36911714
5.2194338 -1.8501666 0.3609089
-1.0069475 -1.833667 0.36188507
-1.5325463 -1.7210737 0.36558461
2.7350698 -1.6397276 0.36043835
11.551236 -1.5174159 0.3666532
4.6304655 -1.478935 0.36592507
5.1019583 -1.4693522 0.36090839
-1.5045905 -1.4250948 0.36131728
-1.7794499 -1.3225708 0.36130357
3.9714255 -1.0393714 0.36129248
3.6671247 -0.75318408 0.36011279
7.0855541 -0.71874046 0.36784166
3.782639 -0.70263076 0.36207044
7.3851357 -0.59077054 0.36564338
4.6970711 -0.54326928 0.36903226
4.0879755 -0.39451373 0.36790767
-2.7734399 -0.34991387 0.3693631
4.1310582 -0.31202221 0.36008906
-1.946151 -0.25202036 0.36041445
4.5271597 -0.23344238 0.36615595
-1.630264 -0.17076838 0.36063105
3.658093 -0.15058327 0.36809576
-2.3914258 -0.10600135 0.36169946
6.8995218 -0.055736035 0.36413398
3.8247044 -0.032625914 0.36232138
1.4755578 0.080030516 0.36589074
4.5935707 0.1277945 0.36006725
-3.2160006 0.20860624 0.36076719
6.3009129 0.25208682 0.36087024
1.9913522 0.27755633 0.36619115
7.4061027 0.33796275 0.36870581
-3.361542 0.34411567 0.36190164
-2.9234262 0.37299317 0.36570013
-3.4380069 0.39427918 0.36338395
9.6386547 0.43480384 0.36623463
2.2667313 0.44268882 0.36001897
-3.4663725 0.45865339 0.36828059
-0.90561199 0.4555496 0.36355907
2.1745851 0.48254538 0.36117035
1.469471 0.61927116 0.36575019
6.4931111 0.64387995 0.36447814
5.9672794 0.66063505 0.36460781
6.9462757 0.77759486 0.36873662
-3.7984247 0.82910752 0.36524487
1.9884491 0.82165301 0.36583316
-0.38046265 0.86905438 0.36038572
1.6572545 0.86395705 0.36077493
2.6946452 0.8614881 0.36089599
2.7254505 0.87487972 0.36026931
-3.8076606 0.91613084 0.36283207
5.5143843 1.0034139 0.36002529
2.5141883 1.0266733 0.36591411
8.8861256 1.0284452 0.36679041
-0.90268993 1.1394016 0.36593825
1.4631824 1.1647747 0.36582541
-3.4020622 1.1740161 0.36059773
-4.1171045 1.1801943 0.36057878
-3.8508196 1.2141616 0.36688745
0.1358242 1.2389358 0.36027405
2.1742711 1.2383115 0.36065915
-4.1795921 1.3546283 0.36136097
1.9852393 1.3719246 0.36591011
8.6518888 1.4189793 0.36781979
8.422987 1.4745086 0.36682189
-0.44613981 1.5062008 0.36897635
-1.7926863 1.5756907 0.36800602
-0.35210252 1.6048633 0.36005011
-2.4532213 1.6447415 0.36536634
8.127224 1.8494275 0.36200821
7.9582963 1.9218078 0.36657476
4.2383885 1.985029 0.36070633
8.5201149 2.0021863 0.36150992
3.5934629 2.0104842 0.36549187
-4.3078823 2.0454774 0.36721075
3.3582911 2.0673349 0.36032844
7.6363759 2.0938056 0.36236006
-2.5429194 2.1052504 0.36001652
8.3181305 2.1324492 0.3603183
-2.7537682 2.1588058 0.36631346
-1.7852893 2.1632509 0.36500186
-5.3038669 2.1702633 0.36842626
-2.1308119 2.2046013 0.36102971
4.1437325 2.2288332 0.36557472
0.92022312 2.2558813 0.36808258
3.7087264 2.3493559 0.36032116
4.7473974 2.3555984 0.36059114
3.0536921 2.3619428 0.36548692
-2.8059552 2.3712676 0.36773664
6.3415422 2.4226878 0.36281586
-2.9235525 2.4858479 0.36596262
1.1526278 2.487874 0.36185202
-5.5177002 2.5091703 0.3640396
0.29526341 2.5060964 0.36642814
-2.1100967 2.5745921 0.36018145
3.6002231 2.5827332 0.3653419
-2.3263366 2.6790299 0.36155504
4.214756 2.7157536 0.36020824
6.9920397 2.7126255 0.36244792
-2.2774074 2.7247584 0.36492652
7.3693705 2.7413335 0.36102825
0.97717577 2.781445 0.36684072
4.1541171 2.8064971 0.36519682
1.4263457 2.8864491 0.36479765
-6.1046195 2.9279768 0.36628675
-5.7133036 2.9628305 0.36194196
-2.6872411 3.0367799 0.36861759
-5.9519973 3.0606592 0.36169052
4.7182035 3.0799599 0.3602525
-0.039202213 3.0880003 0.36081547
1.0821753 3.1442938 0.36380005
-2.5945549 3.1630318 0.36794513
3.6069169 3.1618862 0.36541998
-2.8851113 3.1796784 0.36109018
-3.2236421 3.3503065 0.36162865
0.67046773 3.4039207 0.36875364
6.7540102 3.5034196 0.36579108
6.569077 3.5380955 0.36506927
-2.9270015 3.5475278 0.36506575
-0.30902779 3.5478215 0.36937764
-3.3933082 3.5834446 0.3677603
6.7564597 3.8179073 0.36029512
-6.7245865 3.8206058 0.36419863
2.7215207 3.909476 0.3636941
2.191788 3.924365 0.36891419
6.4678659 4.0081291 0.3632201
-7.2146187 4.0234928 0.36084771
6.0258307 4.0804071 0.36924708
6.021656 4.0999236 0.36133492
-0.52387142 4.2880831 0.36943972
2.0661077 4.333467 0.3692528
-0.064552784 4.3592563 0.36902893
-0.025900364 4.3673468 0.36208951
5.8542161 4.3603411 0.3633661
2.9780996 4.4748459 0.36113679
-7.3346338 4.5339589 0.36611646
-1.0505898 4.5483489 0.36436826
-1.9944949 4.5914512 0.36375499
-1.9783753 4.6351833 0.36476111
-4.5092192 4.6570435 0.36507785
-4.3682709 4.6618757 0.36248034
-1.1080105 4.6958008 0.36497182
1.477035 4.7685075 0.36118174
5.3706002 4.8611555 0.36255324
5.4344301 4.9698796 0.36368483
-5.0993271 5.149404 0.3637352
1.6426743 5.1758909 0.36777872
-1.726038 5.4719582 0.36750513
-4.9573264 5.5425315 0.36076486
4.565671 5.5441771 0.36087501
0.84914041 5.5502801 0.36687195
4.5929646 5.5520992 0.36065358
1.6438233 5.5724173 0.36708555
-5.3346934 5.6020794 0.36375934
1.9192566 5.6143131 0.36380231
1.9905857 5.675632 0.36025846
-1.9735394 5.6962705 0.36330566
3.5091832 5.7422543 0.36683881
1.8072128 5.8010015 0.36015666
4.6098132 5.8170109 0.3619113
3.8496203 5.8837061 0.36438358
1.531515 6.0869789 0.36008751
1.127304 6.1164827 0.36866298
-6.0136409 6.1926622 0.36093271
-6.1424618 6.2007766 0.36958826
0.67580372 6.2890744 0.36537042
-5.7166862 6.294745 0.36689737
1.680573 6.3381572 0.36928371
3.5425727 6.4773951 0.36351737
-2.7941611 6.5344639 0.36934793
3.7036057 6.5463967 0.3681145
-6.4772587 6.554049 0.36436057
3.1834435 6.5541749 0.36461771
-9.2383747 6.5864453 0.36344707
3.5529132 6.5994425 0.36911654
3.7492094 6.6980705 0.36907786
2.7494745 6.9335599 0.36149037
2.8866687 6.9563861 0.36013502
-6.8528261 7.0172668 0.36489439
3.2349093 7.0158076 0.3630563
3.624198 7.0656567 0.36359167
2.5171375 7.2147455 0.36128342
3.2822032 7.2500601 0.36341158
2.8160567 7.361064 0.36685279
1.9905857 7.4502015 0.36025846
1.9423466 7.4632573 0.36433899
-7.0918303 7.7369618 0.36672163
-8.2479925 7.757586 0.36735463
-0.80133462 7.7830362 0.36869764
1.477035 7.858573 0.36118174
-1.074626 7.9879007 0.36480406
-1.0512527 8.239994 0.36931229
2.171648 8.2322378 0.364452
-10.399904 8.3781958 0.36605477
-1.5750122 8.7037392 0.3699733
-1.5794921 8.9244251 0.36424839
0.88718092 9.3304977 0.36612356
0.67777014 9.6570053 0.36568999
0.90395319 9.6805563 0.36346394
-3.2802136 10.04926 0.3617366
-0.85255837 10.926101 0.36351931
-0.51367211 11.183847 0.36095357
-1.24598 11.415494 0.3699497
-1.5680652 11.716268 0.36864311
-1.5896521 11.744357 0.36555254
-3.029671 12.4392 0.36633158
-2.2786124 12.484313 0.36074245
-2.0557685 12.809771 0.36428624
-3.5584528 13.763302 0.364236
9.3432999 -11.339872 0.37671542
8.0052586 -11.03485 0.37585989
8.1214275 -10.937035 0.37436485
7.4447546 -10.908083 0.37413275
9.8934517 -10.358599 0.372426
10.076706 -9.936697 0.37974179
11.180726 -9.6177788 0.37203228
9.0422649 -8.852869 0.37024632
5.6924868 -8.8008251 0.37867057
8.3768101 -8.3561363 0.37915826
5.0989099 -8.347394 0.374836
8.3056335 -8.3286037 0.37210321
5.0032868 -8.1602688 0.37954515
12.834026 -7.9033275 0.37376276
7.3611822 -7.1468959 0.37117615
3.5204511 -6.8098722 0.37111336
3.0325727 -6.2493367 0.37104464
2.6458046 -5.7646604 0.37475437
3.3626182 -5.7430019 0.37916672
12.856766 -5.7168698 0.37746346
5.5319424 -5.6502423 0.3712081
5.532279 -5.60852 0.37002826
5.5420294 -5.5203457 0.37733725
14.509897 -5.4433622 0.37580404
2.7077074 -5.3573637 0.37900138
11.950371 -5.2087455 0.3775785
1.6236498 -5.0750818 0.37727302
15.068522 -5.0536046 0.37254423
2.2720506 -4.9554033 0.37904799
1.1539077 -4.7504072 0.37349397
1.3130977 -4.5741062 0.37881994
1.8351444 -4.5522909 0.37909889
1.4504652 -4.5455036 0.37542152
1.6262647 -4.5124502 0.37356815
2.2719636 -4.5072689 0.37873733
1.1790888 -4.477107 0.37997559
4.5259557 -4.4065728 0.37827146
1.5528234 -4.3844218 0.37595266
3.8317084 -4.3422141 0.37261337
1.6648076 -4.0755887 0.37509671
1.3316578 -4.0688653 0.37094283
2.1840315 -4.0516186 0.37018323
3.6003842 -3.9155293 0.37679601
4.0476894 -3.8682923 0.37642133
1.0203134 -3.8244524 0.37237343
7.0818872 -3.762748 0.37716782
10.452482 -3.5947375 0.37432891
0.078242064 -3.5653582 0.37997186
3.8937085 -3.5693591 0.3775968
0.010186315 -3.5453951 0.37542081
10.489395 -3.5121431 0.37891215
3.6055493 -3.4563792 0.37646848
10.140291 -3.4408083 0.37400782
13.541856 -3.4389787 0.37670457
3.122309 -3.321764 0.37155002
3.354403 -3.1519098 0.37545016
12.836787 -2.7982635 0.37773028
-0.62978625 -2.7462239 0.37201491
3.5865238 -2.6864691 0.37224722
3.6157632 -2.5274413 0.37500787
4.7796822 -2.4650517 0.37149668
5.4405026 -2.3205118 0.37374163
-1.1596993 -2.2800584 0.3704327
2.7550435 -2.1574726 0.37716988
-1.4489551 -2.0737906 0.37930334
2.7149532 -1.998624 0.37633967
5.7638397 -1.9903328 0.37784845
1.8953784 -1.9664814 0.37430847
1.9741943 -1.8970386 0.37042344
4.9916115 -1.8982875 0.37351769
11.962604 -1.8993546 0.37401414
2.4174469 -1.8463819 0.37193823
5.3818402 -1.8370603 0.3718468
2.7091742 -1.554907 0.37213394
-2.163955 -1.3294146 0.37384802
4.9075866 -1.28328 0.37825346
11.360547 -1.2470708 0.37302485
5.0133734 -0.93808973 0.37227267
-2.4326115 -0.85907555 0.3791559
-2.5113487 -0.66980022 0.37734723
4.0755301 -0.47945294 0.37074351
7.5458622 -0.43683684 0.37499893
4.7207932 -0.36181509 0.37656456
9.8015757 -0.28347713 0.37593091
7.5626154 -0.2264688 0.37826759
6.360517 -0.21204825 0.37293142
5.9847031 -0.19055814 0.37030995
7.049612 -0.14486367 0.37826902
3.9266813 -0.12691283 0.37896103
1.8980269 -0.095151663 0.37471819
-2.3713422 0.022305727 0.37003773
9.9135408 0.096817121 0.37629333
6.6356535 0.10727994 0.37981093
7.028964 0.28500688 0.37723446
7.3682985 0.31808937 0.37201089
1.4526681 0.35020721 0.37471759
1.8980306 0.35021254 0.37536168
2.3433838 0.35020721 0.374722
-0.87167716 0.43857133 0.37000972
6.3251228 0.45585221 0.37575737
2.5059276 0.46825111 0.37128901
9.0442219 0.57857883 0.37584621
5.8959064 0.63603628 0.37812036
8.4147215 0.6398133 0.37687588
-1.0717225 0.71173626 0.37477082
1.0073088 0.79556608 0.37472117
1.4526681 0.79556608 0.37471759
1.8980306 0.79556608 0.37536168
2.3433838 0.79556608 0.374722
2.7887447 0.79556608 0.3747195
-4.1071053 0.81452888 0.37636244
-1.3280684 0.99457586 0.37625605
6.5227909 0.99163568 0.37896031
9.0433617 0.99349922 0.37971199
-3.6863985 1.0239215 0.37050322
9.0347691 1.0654221 0.37590796
-3.8574703 1.1539178 0.37163559
-4.1580715 1.1623063 0.37033558
-3.6833069 1.24874 0.37040561
1.4526681 1.240925 0.37471759
1.8980306 1.2409196 0.37536168
2.3433838 1.240925 0.374722
5.560216 1.2482524 0.37858036
5.45293 1.2595553 0.3742885
7.8945541 1.3427989 0.37906861
5.2906876 1.3797972 0.37037575
-4.5894866 1.3831258 0.3700994
5.82514 1.4412972 0.37505889
-3.6714854 1.4597392 0.37059096
-0.72810841 1.5386341 0.37103868
-1.3870304 1.5826857 0.37107703
8.146944 1.5859795 0.37740278
7.8434687 1.6098657 0.37496847
-1.2405232 1.6292515 0.37942606
